# .PCD v0.7 - Point Cloud Data file format
VERSION 0.7
FIELDS x y z intensities index
SIZE 4 4 4 4 4
TYPE F F F F F
COUNT 1 1 1 1 1
WIDTH 1214
HEIGHT 1
VIEWPOINT 0 0 0 1 0 0 0
POINTS 1214
DATA ascii
2.6821144 -4.0832081 1.7381295 157 21
2.6786408 -4.0404553 1.7368633 271 22
2.6737707 -3.9961903 1.7350881 178 23
2.680187 -3.9690375 1.7374269 214 24
2.6764321 -3.9273853 1.7360582 194 25
2.6824474 -3.9003139 1.7382509 164 26
2.6860433 -3.8700559 1.7395616 333 27
2.6996212 -3.8542151 1.7445109 364 28
2.6841171 -3.7977257 1.7388595 469 29
2.6836455 -3.7628751 1.7386875 421 30
2.4045451 -3.3454077 1.6369525 1153 31
2.3968339 -3.3049171 1.6341418 2250 32
2.4010527 -3.2810543 1.6356796 2304 33
2.4045374 -3.2564325 1.6369498 2300 34
2.3990457 -3.2201433 1.634948 2332 35
2.3903465 -3.1800814 1.631777 2277 36
2.3867157 -3.1471319 1.6304536 2317 37
2.3804705 -3.1111906 1.6281772 2386 38
2.3709733 -3.0715232 1.6247153 2370 39
2.3787107 -3.0542192 1.6275357 2399 40
2.3814955 -3.0307963 1.6285508 2424 41
2.36888 -2.9883957 1.6239523 2411 42
2.3743618 -2.9688971 1.6259505 2426 43
2.3710999 -2.9388392 1.6247615 2424 44
2.3707354 -2.9126275 1.6246285 2431 45
2.3814077 -2.8999567 1.6285187 2472 46
2.3720021 -2.8633683 1.6250902 2477 47
2.3730299 -2.8395565 1.625465 2435 48
2.3701186 -2.8113487 1.6244038 2423 49
2.1372471 -2.5163276 1.5395197 54 50
1.9594047 -2.2896178 1.4746943 2569 51
1.9072592 -2.210151 1.4556867 1612 52
1.9105076 -2.1945817 1.4568707 1559 53
1.9194857 -2.1855531 1.4601433 1506 54
1.9342741 -2.1829841 1.4655339 1452 55
1.9490781 -2.1803188 1.4709301 1435 56
1.9724206 -2.1868699 1.4794387 1407 57
1.9919028 -2.1889658 1.4865402 1387 58
2.0081332 -2.187371 1.4924563 1410 59
2.0370111 -2.1991022 1.5029826 1362 60
2.0500102 -2.1937099 1.5077208 1379 61
2.0683651 -2.1938462 1.5144114 1401 62
2.0854144 -2.1924577 1.5206261 1402 63
2.1051958 -2.1937313 1.5278366 1422 64
2.1311355 -2.2010863 1.5372919 1402 65
2.1428642 -2.1937861 1.5415672 1392 66
2.1648393 -2.1966968 1.5495772 1416 67
2.1958115 -2.2083106 1.560867 1404 68
2.2151921 -2.2081389 1.5679314 1402 69
2.2276862 -2.2010729 1.5724857 1404 70
2.2631154 -2.216121 1.5854 1404 71
2.2896338 -2.222183 1.5950662 1401 72
2.3106375 -2.2227132 1.6027223 1428 73
2.3330967 -2.2244155 1.6109089 1433 74
2.3534949 -2.2239735 1.6183442 1474 75
2.3831525 -2.2319129 1.6291547 1572 76
2.4107847 -2.2376604 1.639227 1644 77
2.4385099 -2.2431936 1.6493331 1647 78
2.4634581 -2.2459271 1.6584269 1672 79
2.4942329 -2.2536135 1.6696447 1702 80
2.5164497 -2.2533832 1.677743 1695 81
2.528563 -2.2440841 1.6821584 1686 82
2.5530171 -2.2454712 1.6910721 1670 83
2.5731499 -2.242898 1.6984107 1627 84
2.6043017 -2.2495692 1.7097659 1650 85
2.6407042 -2.2603507 1.723035 1681 86
2.6691284 -2.2640266 1.7333959 1705 87
2.6894894 -2.260709 1.7408178 1686 88
2.7135885 -2.2603061 1.7496021 1636 89
2.7384815 -2.2603314 1.7586759 1716 90
2.7656703 -2.2619836 1.7685864 1616 91
2.8011785 -2.2700465 1.7815295 1690 92
2.8240077 -2.2676504 1.7898511 1850 93
2.8476264 -2.2656801 1.7984604 1759 94
2.8720407 -2.2641246 1.8073596 1766 95
2.8995371 -2.2647367 1.8173823 1731 96
2.9255683 -2.2639675 1.8268709 1723 97
2.9638872 -2.2722909 1.8408386 1735 98
2.9923551 -2.2727978 1.8512154 1709 99
3.0016434 -2.258744 1.8546011 1679 100
3.0108743 -2.2446473 1.8579658 1605 101
2.7265909 -2.0158398 1.7543416 2310 102
2.7092006 -1.9844503 1.7480026 2442 103
2.7048473 -1.9627671 1.7464159 2339 104
2.7113051 -1.9489404 1.7487698 2027 105
2.7161348 -1.9339873 1.7505302 2168 106
2.7271798 -1.9234127 1.7545563 2285 107
2.7350385 -1.9105937 1.7574209 2283 108
2.7665501 -1.9139678 1.7689072 2190 109
2.7743697 -1.9009662 1.7717575 2262 110
2.7821362 -1.8879284 1.7745885 2507 111
2.7611651 -1.8557774 1.7669443 2519 112
2.7367887 -1.8217527 1.7580589 2408 113
2.7322147 -1.8010527 1.7563915 2132 114
2.7315395 -1.7830238 1.7561455 1750 115
2.7106359 -1.7521596 1.7485259 1692 116
2.7008367 -1.728682 1.7449539 1852 117
2.6908972 -1.7053289 1.7413309 2011 118
2.6938043 -1.6901618 1.7423905 2073 119
2.6974525 -1.6755002 1.7437204 2184 120
2.7034793 -1.6623254 1.7459172 2229 121
2.7086327 -1.6486342 1.7477957 2267 122
2.7153652 -1.6359041 1.7502497 2262 123
2.7220452 -1.6231427 1.7526847 2278 124
2.7286732 -1.6103505 1.7551006 2280 125
2.726166 -1.5922788 1.7541867 2118 126
2.7277014 -1.576628 1.7547464 2445 127
2.7341387 -1.5638099 1.7570928 2590 128
2.7405231 -1.5509621 1.75942 2530 129
2.7468548 -1.5380847 1.761728 2432 130
2.7639923 -1.5311306 1.7679747 2553 131
2.7710793 -1.5185983 1.7705581 2564 132
2.7839899 -1.5091802 1.7752641 2560 133
2.8145337 -1.5090411 1.7863977 2516 134
2.820693 -1.4958204 1.7886428 2665 135
2.826798 -1.4825714 1.7908682 2755 136
2.809154 -1.4571295 1.7844367 2636 137
2.8151004 -1.4439343 1.7866043 2707 138
2.8209927 -1.4307117 1.7887521 2693 139
2.8379004 -1.4229559 1.7949151 2531 140
2.8445594 -1.4100461 1.7973424 2647 141
2.8674111 -1.4049808 1.805672 2612 142
2.9074082 -1.4079443 1.8202515 2632 143
2.9157271 -1.3955135 1.8232837 2626 144
2.9291596 -1.3854487 1.82818 2743 145
2.9985697 -1.4012043 1.8534807 2707 146
3.1070096 -1.4341046 1.8930082 2495 147
3.1128588 -1.4195262 1.8951403 2441 148
3.1186483 -1.4049211 1.8972507 2445 149
3.0193484 -1.3439844 1.8610548 2451 150
2.7891746 -1.2272003 1.7771541 2638 151
2.7889521 -1.2118524 1.7770729 2558 152
2.7921479 -1.1980124 1.7782378 2595 153
2.7970321 -1.1848986 1.7800182 2604 154
2.8036139 -1.1724871 1.7824173 2292 155
2.8224277 -1.1650543 1.7892751 2229 156
2.9396355 -1.1971495 1.8319986 2409 157
2.944515 -1.1833508 1.8337772 2407 158
2.9898849 -1.185451 1.8503151 2440 159
3.0291479 -1.1847578 1.8646268 2552 160
2.9994893 -1.1573648 1.8538159 2469 161
3.0042052 -1.1432886 1.8555349 2265 162
3.008863 -1.1291906 1.8572327 2330 163
3.0125749 -1.1147455 1.8585857 2230 164
2.9503906 -1.0765009 1.8359189 1802 165
2.6946096 -0.97000039 1.7426841 1617 166
2.693207 -0.95546293 1.7421728 1967 167
2.6970978 -0.94281101 1.7435911 1929 168
2.7009368 -0.93014109 1.7449905 1728 169
2.726229 -0.92467046 1.7542096 1817 170
2.7533224 -0.91957557 1.7640855 2022 171
2.763355 -0.90869135 1.7677425 2247 172
2.7670534 -0.8957141 1.7690907 2278 173
2.7706988 -0.88271981 1.7704194 2221 174
2.7418189 -0.85963482 1.7598925 2133 175
2.7453167 -0.84675807 1.7611674 2256 176
2.7487614 -0.83386517 1.762423 2241 177
2.7666392 -0.82523221 1.7689396 2165 178
2.7835922 -0.81618595 1.7751192 2151 179
2.7869112 -0.80311561 1.776329 1881 180
2.7983539 -0.79232138 1.7805001 1626 181
2.8816204 -0.80121613 1.8108515 1909 182
2.8967152 -0.79089063 1.8163537 2258 183
2.8999295 -0.77729517 1.8175254 2274 184
2.9030883 -0.76368487 1.8186767 2249 185
2.731699 -0.70547199 1.7562037 1732 186
2.7254198 -0.69035172 1.7539147 1732 187
2.7236462 -0.6764279 1.7532682 1903 188
2.723644 -0.66297519 1.7532674 2015 189
2.7217493 -0.64910251 1.7525768 2083 190
2.71153 -0.63335043 1.7488518 1751 191
2.7122624 -0.62020069 1.7491188 1540 192
2.7120194 -0.60685253 1.7490301 1594 193
2.7135603 -0.59391719 1.7495918 1608 194
2.7168906 -0.58136928 1.7508057 1563 195
2.7220144 -0.56918335 1.7526734 1373 196
2.7215524 -0.55584174 1.7525051 908 197
2.7053289 -0.53941727 1.7465914 409 198
2.7204578 -0.52920419 1.7521061 1237 199
2.7198253 -0.51590884 1.7518754 2368 200
2.7117286 -0.50127465 1.7489241 2634 201
2.7081976 -0.48755074 1.747637 2659 202
2.7185159 -0.47628033 1.7513982 2572 203
2.7204423 -0.46351543 1.7521003 2590 204
2.7223163 -0.45074171 1.7527835 2643 205
2.7362177 -0.43988094 1.7578506 2565 206
2.8365541 -0.44224438 1.7944243 2407 207
3.0727971 -0.46400326 1.8805374 1787 208
3.1230788 -0.45660537 1.8988656 2120 209
3.1314409 -0.44287547 1.9019136 2243 210
3.1472068 -0.4300862 1.9076605 2174 211
3.1489396 -0.41533086 1.9082922 2095 212
3.1524782 -0.40080267 1.909582 2073 213
3.1522241 -0.38579667 1.9094893 2064 214
3.1537752 -0.37101844 1.9100548 2052 215
3.1515286 -0.35581502 1.9092358 2094 216
3.1398697 -0.33963767 1.904986 2105 217
3.1412318 -0.32491723 1.9054825 2120 218
3.1490827 -0.31083113 1.9083443 2122 219
3.1484547 -0.29589388 1.9081154 2122 220
3.1496375 -0.28113398 1.9085464 2113 221
3.1507597 -0.26636875 1.9089556 2149 222
3.1480737 -0.251302 1.9079765 2162 223
3.1490736 -0.23654433 1.9083409 2176 224
3.1500132 -0.22178213 1.9086834 2168 225
3.1508918 -0.20701572 1.9090037 2216 226
3.1517105 -0.19224536 1.9093021 2213 227
3.1421475 -0.17689566 1.9058163 2229 228
3.1390886 -0.16197428 1.9047014 2199 229
3.133152 -0.14695384 1.9025375 2058 230
3.1337245 -0.13226645 1.9027461 1758 231
3.1342366 -0.11757652 1.9029326 1945 232
3.1375055 -0.10297599 1.9041243 2246 233
3.1407154 -0.088347323 1.9052943 2324 234
3.1448045 -0.073712617 1.9067848 2375 235
3.141319 -0.058901995 1.9055144 2330 236
3.1415303 -0.04417751 1.9055914 2335 237
3.1454391 -0.029487088 1.9070162 2361 238
3.1455297 -0.014743747 1.9070492 2400 239
3.1408625 -1.256913e-07 1.9053479 2374 240
3.1408322 0.01472168 1.9053369 2385 241
3.1332257 0.029373392 1.9025642 2409 242
3.133075 0.044059452 1.9025093 2433 243
3.1328645 0.058744673 1.9024326 2398 244
3.1419866 0.073646925 1.9057577 2422 245
3.1454115 0.088477962 1.907006 2429 246
3.1450186 0.10322005 1.9068629 2416 247
3.1445651 0.11796018 1.9066976 2437 248
3.1374795 0.13242322 1.9041148 2398 249
3.1369066 0.14712806 1.903906 2430 250
3.1362734 0.1618301 1.9036751 2436 251
3.143086 0.17694774 1.9061583 2412 252
3.1423302 0.1916782 1.9058828 2386 253
3.1415143 0.20640498 1.9055855 2365 254
3.1340752 0.22067003 1.9028739 2337 255
3.1331406 0.23535822 1.9025332 2315 256
3.1321456 0.25004193 1.9021705 2275 257
3.1367104 0.26519161 1.9038345 2251 258
3.1365294 0.27997443 1.9037684 2240 259
3.1353514 0.29467344 1.903339 2235 260
3.1341133 0.30936685 1.9028878 2222 261
3.1356206 0.32434189 1.9034373 2216 262
3.1342609 0.33903629 1.9029416 2199 263
3.1300375 0.3534106 1.9014021 2195 264
3.1248231 0.36764333 1.8995014 2189 265
3.1036825 0.37990984 1.8917954 2209 266
2.8884346 0.36753935 1.8133353 2562 267
2.8300159 0.3736513 1.7920411 2614 268
2.7949042 0.38238275 1.7792425 2660 269
2.7905152 0.39510265 1.7776427 2653 270
2.7888687 0.40819365 1.7770425 2644 271
2.7880991 0.42141604 1.776762 2618 272
2.788204 0.43478253 1.7768003 2685 273
2.7910411 0.44860145 1.7778344 2540 274
2.8096042 0.46504107 1.7846009 1789 275
2.9032509 0.49433279 1.8187361 1118 276
2.9800179 0.52160949 1.8467184 997 277
3.0668089 0.55142397 1.8783547 1603 278
3.1210022 0.57612687 1.8981087 2045 279
3.1213863 0.59127194 1.8982487 2124 280
3.1189325 0.60589767 1.8973542 2142 281
3.1173422 0.62069404 1.8967745 2186 282
3.117537 0.63586032 1.8968456 2141 283
3.116745 0.65084934 1.8965569 2153 284
3.1158898 0.66584319 1.8962451 2142 285
3.127861 0.68363249 1.9006088 2149 286
3.1250284 0.69828743 1.8995762 2175 287
3.1221356 0.71292901 1.8985218 2202 288
3.1201015 0.72776932 1.8977803 2150 289
3.1170881 0.74238777 1.8966819 2200 290
3.1140146 0.7569921 1.8955616 2197 291
3.1172898 0.77315664 1.8967553 2186 292
3.1186626 0.78890759 1.8972558 2209 293
3.1181393 0.80421913 1.897065 2197 294
3.1148124 0.81882775 1.8958524 2178 295
3.1132491 0.83390462 1.8952826 2186 296
3.1116219 0.84898257 1.8946894 2194 297
3.1099308 0.86406124 1.894073 2220 298
3.1190786 0.88219559 1.8974074 2230 299
3.1190624 0.89784318 1.8974016 2256 300
3.1153517 0.9124552 1.8960489 2222 301
3.1115813 0.92704982 1.8946747 2194 302
3.1186018 0.94488406 1.8972337 2226 303
3.1192141 0.9608717 1.8974569 2248 304
3.1206572 0.97716284 1.8979828 2236 305
3.1166213 0.99178147 1.8965118 2241 306
3.1125257 1.0063813 1.8950188 2257 307
3.1029792 1.0192076 1.8915391 2293 308
3.0969765 1.0331507 1.889351 2186 309
3.0918155 1.0473582 1.8874698 1985 310
3.0785439 1.0587935 1.8826321 1743 311
3.0571966 1.0673445 1.8748509 1891 312
3.0411923 1.0775965 1.8690171 2103 313
2.9975424 1.0778838 1.8531063 2152 314
2.9610667 1.0803579 1.8398105 2152 315
2.8962021 1.0720958 1.8161666 2218 316
2.7179272 1.0210518 1.7511836 2550 317
2.7013164 1.0291264 1.7451288 2551 318
2.6970716 1.0417972 1.7435815 2523 319
2.6786489 1.0489756 1.7368662 2459 320
2.6743228 1.0615408 1.7352895 2367 321
2.6593852 1.0698835 1.7298445 2394 322
2.6532164 1.0816504 1.7275958 2392 323
2.6101632 1.0783291 1.7119025 2417 324
2.5706916 1.0760784 1.6975148 2409 325
2.5374084 1.0760475 1.6853826 2424 326
2.4963217 1.0723932 1.6704061 2436 327
2.4718657 1.0754955 1.6614916 2427 328
2.4456935 1.0776339 1.6519517 2492 329
2.423892 1.0814632 1.6440047 2667 330
2.4116373 1.0893646 1.6395378 2796 331
2.4071484 1.1006894 1.6379014 2811 332
2.4026129 1.1119933 1.6362482 2806 333
2.3997545 1.1240735 1.6352063 2813 334
2.4071627 1.1409812 1.6379067 2803 335
2.41362 1.1575724 1.6402605 2813 336
2.4131346 1.1709594 1.6400836 2796 337
2.4142954 1.1851932 1.6405067 2804 338
2.4094136 1.1965294 1.6387272 2766 339
2.4095945 1.2103786 1.6387931 2785 340
2.4063087 1.2225459 1.6375954 2792 341
2.4097538 1.2381498 1.6388512 2734 342
2.4055014 1.2498989 1.6373011 2729 343
2.4045761 1.2633855 1.6369638 2741 344
2.4094856 1.2799834 1.6387534 2756 345
2.405056 1.2917426 1.6371387 2796 346
2.4089658 1.3079859 1.638564 2767 347
2.4102778 1.3229282 1.6390423 2748 348
2.4065015 1.3351601 1.6376657 2721 349
2.4043386 1.3483058 1.6368773 2726 350
2.4054399 1.3633192 1.6372787 2744 351
2.4014871 1.3755516 1.6358379 2751 352
2.406584 1.3929797 1.6376958 2760 353
2.4074557 1.4080954 1.6380135 2735 354
2.416487 1.4280556 1.6413054 2737 355
2.4122529 1.4403692 1.6397622 2759 356
2.4104238 1.4541367 1.6390954 2713 357
2.4044392 1.4654524 1.636914 2739 358
2.4065654 1.4817024 1.637689 2757 359
2.4151139 1.5019999 1.640805 2731 360
2.415426 1.5173671 1.6409189 2754 361
2.4108014 1.5297205 1.639233 2759 362
2.4101591 1.5446162 1.638999 2738 363
2.4054146 1.55696 1.6372695 2741 364
2.4022214 1.5703266 1.6361055 2733 365
2.404573 1.5873506 1.6369628 2740 366
2.4068308 1.6044261 1.6377857 2729 367
2.4177589 1.627382 1.6417692 2708 368
2.4118588 1.6392637 1.6396185 2692 369
2.4130397 1.6559573 1.6400489 2702 370
2.4062276 1.6672832 1.6375659 2707 371
2.3993697 1.6785774 1.635066 2704 372
2.3901081 1.6881948 1.6316901 2717 373
2.0658629 1.4758794 1.5134994 3513 374
1.9777677 1.4272598 1.4813877 3086 375
1.9298369 1.4063702 1.4639164 2649 376
1.9186164 1.4115146 1.4598265 2610 377
1.8942285 1.406953 1.4509368 2639 378
1.8791789 1.4090319 1.4454511 2632 379
1.8579922 1.4064093 1.4377283 2646 380
1.749084 -3.2553897 1.363145 231 0
1.7705914 -3.261843 1.3705626 89 1
2.6913395 -4.8828526 1.6881143 1113 2
2.7114546 -4.8702559 1.6950518 1159 3
2.6984091 -4.7992797 1.6905525 1196 4
2.6995435 -4.7541647 1.6909437 1652 5
2.7003579 -4.7091317 1.6912246 1384 6
2.6948836 -4.6539779 1.6893367 1185 7
2.6980238 -4.6142297 1.6904197 1187 8
2.7013931 -4.5753875 1.6915816 1179 9
2.6983988 -4.5264821 1.6905489 1187 10
2.7042584 -4.4928303 1.6925699 1165 11
2.7031996 -4.4483085 1.6922047 1156 12
2.6976788 -4.3971925 1.6903007 1258 13
2.715791 -4.3845716 1.6965473 1786 14
2.7364767 -4.3760247 1.7036815 1558 15
2.7624304 -4.3756604 1.7126324 1305 16
2.780453 -4.3627405 1.7188482 780 17
2.697221 -4.1939783 1.6901428 166 18
2.6616876 -4.1008401 1.6778878 136 19
2.6552613 -4.0531645 1.6756715 189 20
2.6626792 -4.0268598 1.6782298 214 21
2.6710293 -4.002192 1.6811097 153 22
2.6847503 -3.9856398 1.6858418 256 23
2.6856062 -3.9504299 1.686137 182 24
2.6873415 -3.9169014 1.6867355 190 25
2.6759191 -3.864944 1.682796 257 26
2.68222 -3.8388071 1.6849692 215 27
2.6673067 -3.7831366 1.6798258 266 28
2.6817415 -3.7690697 1.6848041 184 29
2.5545394 -3.5597765 1.6409341 394 30
2.4007785 -3.3177335 1.5879043 2141 31
2.4092021 -3.299401 1.5908096 2326 32
2.4005489 -3.25828 1.5878252 2356 33
2.3963108 -3.223563 1.5863634 2350 34
2.3888743 -3.1850483 1.5837988 2320 35
2.3918753 -3.1606526 1.5848337 2348 36
2.3917308 -3.1324184 1.5847839 2354 37
2.3757653 -3.0841835 1.5792776 2421 38
2.3830237 -3.0661411 1.581781 2470 39
2.3792412 -3.034302 1.5804765 2332 40
2.3727994 -2.9995039 1.5782548 2381 41
2.3691862 -2.9686251 1.5770086 2446 42
2.3758545 -2.9507158 1.5793085 2368 43
2.3836615 -2.9343109 1.582001 2376 44
2.3820293 -2.9066126 1.5814381 2450 45
2.3827205 -2.8819816 1.5816764 2489 46
2.3801069 -2.8536696 1.580775 2349 47
2.3747759 -2.8224642 1.5789365 2433 48
2.369869 -2.7921028 1.5772442 2553 49
2.0856574 -2.4396508 1.479224 640 50
1.9070383 -2.2139826 1.417621 1841 51
1.9097049 -2.1977179 1.4185407 1617 52
1.9181039 -2.1880264 1.4214374 1553 53
1.9271108 -2.1790247 1.4245437 1519 54
1.9367342 -2.1707039 1.4278626 1494 55
1.95749 -2.1745644 1.435021 1473 56
1.9776551 -2.1775579 1.4419756 1445 57
2.0091469 -2.1925318 1.4528366 1439 58
2.0301511 -2.1958933 1.4600807 1405 59
2.0411949 -2.1884956 1.4638896 1404 60
2.0549023 -2.1838536 1.468617 1427 61
2.0868158 -2.1980515 1.4796234 1425 62
2.1006024 -2.1931553 1.4843783 1410 63
2.1232295 -2.1972046 1.492182 1432 64
2.1500273 -2.2052352 1.5014241 1454 65
2.1625316 -2.1986046 1.5057367 1440 66
2.187417 -2.2042336 1.5143193 1442 67
2.2061675 -2.2035367 1.520786 1455 68
2.234673 -2.2122118 1.5306171 1429 69
2.2437766 -2.2017486 1.5337569 1462 70
2.282927 -2.2201552 1.5472592 1450 71
2.2983859 -2.2154915 1.5525907 1471 72
2.3244293 -2.2207155 1.5615727 1465 73
2.3477275 -2.2230904 1.5696079 1521 74
2.3753545 -2.2292483 1.579136 1523 75
2.3938024 -2.2266645 1.5854983 1585 76
2.4201522 -2.231133 1.594586 1661 77
2.4494598 -2.237998 1.6046938 1676 78
2.4759843 -2.2420504 1.6138417 1712 79
2.4996924 -2.2433288 1.6220182 1690 80
2.5241852 -2.2450705 1.6304654 1663 81
2.5465519 -2.2447202 1.6381793 1694 82
2.5755525 -2.2499003 1.6481812 1646 83
2.5884819 -2.24101 1.6526403 1656 84
2.6176071 -2.2458136 1.6626852 1644 85
2.643862 -2.2479005 1.6717401 1685 86
2.6768658 -2.2553592 1.6831225 1702 87
2.7062569 -2.2594779 1.6932591 1693 88
2.7282581 -2.2572453 1.700847 1663 89
2.7540429 -2.2578962 1.7097398 1681 90
2.7828948 -2.2607732 1.7196903 1631 91
2.8012536 -2.2550011 1.726022 1704 92
2.8355248 -2.261667 1.7378416 1765 93
2.8683846 -2.2668698 1.7491745 1730 94
2.9059155 -2.2753596 1.7621182 1758 95
2.923686 -2.2682633 1.768247 1708 96
2.9468243 -2.265136 1.7762271 1726 97
2.9669144 -2.2595153 1.7831558 1716 98
2.9762061 -2.245672 1.7863604 1734 99
2.9854405 -2.231786 1.7895452 1615 100
2.8019838 -2.0764983 1.7262739 2084 101
2.714694 -1.9937501 1.6961689 2244 102
2.7025747 -1.9664404 1.6919892 2368 103
2.7012556 -1.9471098 1.6915342 2415 104
2.7037587 -1.9306066 1.6923975 2289 105
2.6982949 -1.9085982 1.6905131 2354 106
2.7053511 -1.8954498 1.6929467 2386 107
2.7044222 -1.8768263 1.6926264 2386 108
2.704982 -1.8593293 1.6928195 2401 109
2.6918957 -1.8327291 1.6883062 2427 110
2.6914346 -1.814823 1.6881471 2434 111
2.6964893 -1.8006657 1.6898905 2431 112
2.7022831 -1.7870226 1.6918886 2434 113
2.7064044 -1.7723153 1.6933099 2477 114
2.7031825 -1.7529349 1.6921988 2454 115
2.6966114 -1.7315581 1.6899325 2458 116
2.6939785 -1.7128319 1.6890244 2449 117
2.699389 -1.6992385 1.6908904 2466 118
2.7047389 -1.6856278 1.6927356 2456 119
2.7100284 -1.6720002 1.6945598 2446 120
2.7111537 -1.6558745 1.694948 2482 121
2.6990337 -1.6318917 1.6907679 2474 122
2.6991405 -1.615382 1.6908047 2467 123
2.6892414 -1.5930846 1.6873907 2497 124
2.6957867 -1.5805292 1.689648 2478 125
2.7006185 -1.5669894 1.6913146 2500 126
2.70206 -1.551542 1.6918117 2465 127
2.7042603 -1.5365806 1.6925704 2473 128
2.6971865 -1.5165066 1.6901308 2487 129
2.7034159 -1.5039153 1.6922793 2478 130
2.6969869 -1.4844273 1.690062 2484 131
2.7030842 -1.4718374 1.6921649 2472 132
2.7082849 -1.4587691 1.6939585 2482 133
2.7142761 -1.4461272 1.6960248 2504 134
2.7083449 -1.4272656 1.6939793 2525 135
2.7074089 -1.4111168 1.6936564 2498 136
2.7029858 -1.3932661 1.6921309 2512 137
2.7070003 -1.3797882 1.6935155 2519 138
2.7101007 -1.3658732 1.6945847 2518 139
2.7097111 -1.3502654 1.6944504 2530 140
2.7049527 -1.332594 1.6928092 2525 141
2.709563 -1.319554 1.6943994 2520 142
2.7003269 -1.2999252 1.691214 2527 143
2.7039359 -1.2865082 1.6924586 2517 144
2.7057552 -1.2722769 1.693086 2509 145
2.7092435 -1.2588509 1.6942892 2495 146
2.7074611 -1.2430484 1.6936744 2541 147
2.6995096 -1.2245514 1.690932 2517 148
2.7010477 -1.2104055 1.6914625 2535 149
2.7051411 -1.1974165 1.6928743 2536 150
2.7083044 -1.1840343 1.6939652 2536 151
2.7035205 -1.1672742 1.6923153 2489 152
2.7030408 -1.1524336 1.69215 2520 153
2.7077687 -1.1398189 1.6937804 2556 154
2.7071579 -1.1250077 1.6935698 2522 155
2.6976514 -1.1066403 1.6902912 2531 156
2.6986542 -1.0926337 1.690637 2529 157
2.6995928 -1.0786388 1.6909608 2524 158
2.7031295 -1.0656946 1.6921805 2548 159
2.7074993 -1.0530801 1.6936876 2570 160
2.7073681 -1.038756 1.6936424 2523 161
2.7080624 -1.0247872 1.6938818 2537 162
2.7042313 -1.0091832 1.6925604 2527 163
2.7012169 -0.99395967 1.6915209 2532 164
2.7026055 -0.98039043 1.6919998 2535 165
2.6922793 -0.96270239 1.6884384 2488 166
2.6683924 -0.940431 1.6802002 2390 167
2.6596589 -0.92365193 1.6771882 2393 168
2.6553402 -0.90849572 1.6756986 2482 169
2.6581604 -0.89580268 1.6766714 2565 170
2.6618299 -0.88339746 1.6779369 2558 171
2.6690643 -0.87214488 1.680432 2495 172
2.672636 -0.85968959 1.6816639 2406 173
2.6951914 -0.8531822 1.6894428 2536 174
2.703223 -0.84200561 1.6922127 2566 175
2.70667 -0.82939291 1.6934016 2572 176
2.7100651 -0.81676441 1.6945726 2567 177
2.7088532 -0.80278414 1.6941545 2552 178
2.703018 -0.78751552 1.692142 2555 179
2.7007616 -0.77335137 1.6913638 2553 180
2.7011828 -0.75998688 1.6915091 2592 181
2.7033765 -0.74713403 1.6922656 2603 182
2.7064323 -0.73452151 1.6933196 2555 183
2.7066844 -0.72116923 1.6934065 2572 184
2.7050416 -0.70735335 1.69284 2572 185
2.7042563 -0.69379967 1.6925691 2569 186
2.6988108 -0.6791209 1.690691 2536 187
2.701586 -0.66653007 1.6916481 2547 188
2.7033873 -0.65370589 1.6922694 2532 189
2.7060578 -0.64109421 1.6931905 2515 190
2.7096 -0.62868255 1.6944121 2532 191
2.7121673 -0.61604244 1.6952975 2540 192
2.7137566 -0.60318696 1.6958456 2523 193
2.7097337 -0.58913231 1.6944582 2534 194
2.7084293 -0.57571167 1.6940084 2531 195
2.7107778 -0.56307745 1.6948183 2497 196
2.7130747 -0.5504325 1.6956104 2502 197
2.7106714 -0.53686601 1.6947817 2468 198
2.7054176 -0.52279824 1.6929697 2530 199
2.7056861 -0.50983119 1.6930622 2526 200
2.7040362 -0.49653283 1.6924932 2384 201
2.705126 -0.48375463 1.6928691 2363 202
2.7070954 -0.47113657 1.6935483 2513 203
2.7090125 -0.45850953 1.6942095 2644 204
2.7426457 -0.45104593 1.7058091 2866 205
2.7575698 -0.44032437 1.7109561 2921 206
2.9801548 -0.46132889 1.7877222 2581 207
3.1149635 -0.46720424 1.8342156 2303 208
3.1627598 -0.45930237 1.8506999 2030 209
3.1777461 -0.44639972 1.8558683 1448 210
3.1814322 -0.431853 1.8571397 1663 211
3.2498031 -0.42568976 1.8807198 2345 212
3.2515278 -0.41055825 1.8813145 2514 213
3.25319 -0.39541894 1.8818878 2580 214
3.2529104 -0.38005438 1.8817914 2606 215
3.254447 -0.36490899 1.8823212 2586 216
3.2559206 -0.34975666 1.8828295 2579 217
3.2573323 -0.33459765 1.8833164 2600 218
3.2652707 -0.32007277 1.8860543 2584 219
3.2722104 -0.30539384 1.8884476 2582 220
3.2753229 -0.2903257 1.8895211 2564 221
3.2774315 -0.27515617 1.8902483 2563 222
3.2804205 -0.26004684 1.8912792 2560 223
3.2908924 -0.24547316 1.8948908 2535 224
3.3003633 -0.23074238 1.8981571 2370 225
3.3060014 -0.21568462 1.9001017 1481 226
3.3521633 -0.20301701 1.9160222 511 227
3.3529687 -0.1874152 1.9162999 1948 228
3.3537095 -0.17180981 1.9165554 2440 229
2.80849 -0.13098913 1.7285178 875 230
2.8090034 -0.11789734 1.7286947 1095 231
2.782064 -0.10379121 1.7194037 3048 232
2.7862449 -0.090943798 1.7208457 2793 233
2.8102193 -0.078609489 1.7291141 2824 234
3.1271355 -0.072818212 1.8384136 918 235
3.186954 -0.059355762 1.8590441 2678 236
3.1871684 -0.044517841 1.859118 2512 237
3.1873214 -0.029679073 1.8591708 1957 238
3.2450795 -0.015105905 1.8790905 210 239
3.2451105 -1.2896955e-07 1.8791013 151 240
3.2961283 0.015341264 1.8966966 1396 241
3.3158848 0.030865623 1.9035103 2258 242
3.3157258 0.046297766 1.9034555 2443 243
3.3155031 0.061729029 1.9033786 2410 244
3.3133266 0.077115491 1.9026279 2453 245
3.2912407 0.09193331 1.8950109 2464 246
3.2804358 0.1069152 1.8912845 2487 247
3.2610676 0.12148502 1.8846047 2493 248
3.2331409 0.13552475 1.8749732 2551 249
3.2306621 0.15048675 1.8741183 2471 250
3.1799643 0.16298158 1.8566334 1941 251
2.8998194 0.16229369 1.7600158 738 252
2.899122 0.17580423 1.7597753 537 253
2.8983691 0.18931141 1.7595156 541 254
3.16924 0.22165108 1.8529347 1794 255
3.2380812 0.24156654 1.876677 2506 256
3.2464814 0.25737867 1.8795741 2582 257
3.2585826 0.27358672 1.8837476 2623 258
3.2574229 0.28875208 1.8833476 2569 259
3.2562003 0.30391195 1.8829261 2605 260
3.2539742 0.31897452 1.8821583 2551 261
3.2526274 0.33411816 1.8816937 2557 262
3.2512178 0.34925544 1.8812077 2563 263
3.2497461 0.36438611 1.8807001 2569 264
3.2482119 0.37950981 1.8801709 2600 265
3.2174973 0.39111698 1.869578 2559 266
2.9924181 0.37811768 1.7919517 2508 267
2.8397617 0.37243259 1.7393028 2090 268
2.8175666 0.38288754 1.7316481 2064 269
2.8159599 0.39601633 1.731094 1934 270
2.8142996 0.40913761 1.7305213 1563 271
2.8631372 0.42976642 1.7473648 1395 272
3.1335888 0.48486143 1.8406392 1572 273
3.1829822 0.50757742 1.8576742 1944 274
3.1967418 0.52497768 1.8624197 2057 275
3.1945457 0.53985518 1.8616623 1966 276
3.1932213 0.55488318 1.8612056 1844 277
3.1974287 0.57089955 1.8626566 1732 278
3.2090185 0.58832002 1.8666538 1564 279
3.212147 0.60429555 1.8677326 1460 280
3.2105536 0.61942136 1.8671832 1746 281
3.2330649 0.63928205 1.874947 2446 282
3.2461863 0.65749711 1.8794724 2561 283
3.2490106 0.67374641 1.8804464 2549 284
3.2499094 0.68964416 1.8807564 2576 285
3.2498126 0.70536363 1.880723 2554 286
3.2505739 0.72129893 1.8809856 2527 287
3.2475674 0.73642308 1.8799487 2521 288
3.2444985 0.75153321 1.8788903 2539 289
3.2349069 0.76511389 1.8755822 2545 290
3.2307975 0.7799446 1.8741651 2567 291
3.2211018 0.79340219 1.8708211 2604 292
3.209516 0.80632681 1.8668253 2609 293
3.1620362 0.81005532 1.8504503 2659 294
3.1586645 0.82476991 1.8492874 2716 295
3.155232 0.83946884 1.8481036 2745 296
3.165483 0.85784405 1.851639 2626 297
3.214083 0.88684583 1.8684005 2548 298
3.2341633 0.90841961 1.8753258 2552 299
3.2440822 0.92734849 1.8787467 2561 300
3.2475226 0.94454497 1.8799332 2533 301
3.2463284 0.96045464 1.8795214 2545 302
3.2477942 0.97718543 1.8800269 2516 303
3.2464585 0.99312121 1.8795663 2495 304
3.2432387 1.0085037 1.8784558 2478 305
3.2381411 1.0233071 1.8766977 2477 306
3.2338889 1.038371 1.8752311 2261 307
3.1590588 1.0306102 1.8494234 1633 308
3.1177614 1.0331507 1.8351805 1178 309
3.1134696 1.0476589 1.8337004 1366 310
3.1046164 1.0606228 1.8306471 1974 311
3.0678446 1.0639454 1.8179651 2113 312
3.0634265 1.0782229 1.8164414 2142 313
3.0159173 1.0772492 1.8000561 2164 314
2.9881701 1.0829294 1.7904866 2195 315
2.9309371 1.0776304 1.7707478 2217 316
2.7783086 1.0365473 1.7181087 2454 317
2.6822195 1.0151066 1.6849689 2586 318
2.6780064 1.0276046 1.683516 2510 319
2.6737421 1.0400831 1.6820452 2508 320
2.672087 1.0535802 1.6814743 2419 321
2.6677153 1.0660311 1.6799667 2380 322
2.6632926 1.0784618 1.6784414 2394 323
2.6226332 1.0761788 1.6644186 2410 324
2.5820444 1.0735413 1.6504202 2426 325
2.5459268 1.0723826 1.6379638 2437 326
2.513381 1.0723932 1.6267393 2438 327
2.4914031 1.0766193 1.6191593 2447 328
2.4580641 1.0757407 1.6076612 2467 329
2.4335153 1.0784018 1.5991948 2582 330
2.4055045 1.0793102 1.5895343 2728 331
2.4010293 1.0905304 1.5879909 2786 332
2.396508 1.10173 1.5864315 2784 333
2.4040778 1.1184911 1.5890422 2809 334
2.4158814 1.1373565 1.5931131 2765 335
2.412894 1.1494377 1.5920829 2791 336
2.4081295 1.1606914 1.5904396 2807 337
2.4153619 1.1777287 1.5929339 2813 338
2.4121976 1.1898309 1.5918427 2798 339
2.4089801 1.2019262 1.5907329 2795 340
2.4074194 1.2148677 1.5901947 2797 341
2.4092109 1.2295395 1.5908126 2785 342
2.4143338 1.245989 1.5925794 2795 343
2.4108703 1.2581251 1.5913849 2789 344
2.4082012 1.2706952 1.5904644 2819 345
2.4046285 1.2828186 1.5892322 2776 346
2.4043791 1.2967335 1.5891461 2773 347
2.4124844 1.3152105 1.5919415 2814 348
2.4078763 1.3269185 1.5903522 2778 349
2.4132807 1.3441501 1.5922163 2809 350
2.4127328 1.3581975 1.5920272 2783 351
2.4079418 1.3699179 1.5903748 2765 352
2.4022677 1.3811467 1.588418 2764 353
2.4065173 1.3980751 1.5898836 2754 354
2.4131594 1.4165118 1.5921743 2754 355
2.4097738 1.4292186 1.5910066 2729 356
2.4121034 1.4453415 1.5918101 2738 357
2.4110551 1.4595433 1.5914485 2719 358
2.4173229 1.4782289 1.5936103 2741 359
2.4136581 1.4909999 1.5923463 2733 360
2.4099345 1.5037651 1.5910621 2731 361
2.4045231 1.5155095 1.5891957 2757 362
2.4071856 1.5323453 1.590114 2722 363
2.4089448 1.5487194 1.5907208 2718 364
2.4130399 1.5666951 1.5921332 2705 365
2.4202571 1.586828 1.5946223 2719 366
2.4152961 1.599164 1.5929112 2720 367
2.4102798 1.6114843 1.5911812 2721 368
2.406008 1.6243224 1.5897079 2721 369
2.3992848 1.6355399 1.5873892 2743 370
2.4052365 1.6553818 1.5894418 2707 371
2.398385 1.6665953 1.5870788 2703 372
2.3914876 1.6777772 1.5847001 2683 373
2.3041353 1.6326295 1.5545735 2912 374
2.0057597 1.43726 1.4516685 3498 375
1.9457339 1.4080476 1.4309665 2796 376
1.9219345 1.4041982 1.4227585 2641 377
1.9036584 1.404121 1.4164554 2633 378
1.8970711 1.4124519 1.4141835 2665 379
1.8788364 1.412145 1.4078946 2612 380
1.7651988 -3.2631836 1.3338926 715 0
1.7787211 -3.2549322 1.3382936 341 1
1.8028265 -3.2655745 1.346139 147 2
2.6725411 -4.770565 1.6291975 1126 3
2.6923089 -4.7581358 1.6356312 1328 4
2.7036388 -4.7310824 1.6393186 1551 5
2.6979032 -4.6750259 1.6374519 1194 6
2.7042644 -4.6403718 1.6395222 1241 7
2.6998084 -4.5879402 1.638072 1199 8
2.7046106 -4.5517073 1.6396348 1252 9
2.7030332 -4.5053973 1.6391215 1213 10
2.7052393 -4.4659171 1.6398395 1188 11
2.6988835 -4.4130845 1.637771 1161 12
2.7171681 -4.400538 1.6437218 1816 13
2.7380242 -4.392077 1.6505098 1972 14
2.7662585 -4.3951483 1.659699 1982 15
2.7844679 -4.3822927 1.6656253 1764 16
2.729305 -4.2561107 1.6476719 368 17
2.7081587 -4.1840887 1.6407896 186 18
2.6924298 -4.1213808 1.6356705 173 19
2.7089586 -4.1080475 1.64105 125 20
2.7029274 -4.0611587 1.6390871 194 21
2.7114687 -4.0363851 1.6418669 263 22
2.6859667 -3.9621043 1.6335671 179 23
2.680023 -3.9172604 1.6316326 203 24
2.6928766 -3.8999662 1.635816 188 25
2.6926291 -3.86414 1.6357354 250 26
2.6989636 -3.8380058 1.637797 222 27
2.6845317 -3.7831366 1.6331 247 28
2.6973245 -3.7666814 1.6372635 237 29
2.391073 -3.3130438 1.5375905 1667 30
2.4018853 -3.2979662 1.5411094 2300 31
2.4009099 -3.2670927 1.540792 2322 32
2.3997245 -3.2362909 1.5404062 2332 33
2.4072099 -3.2173023 1.5428424 2321 34
2.4026797 -3.1827085 1.541368 2315 35
2.3997045 -3.1505497 1.5403997 2359 36
2.379663 -3.0967963 1.533877 2403 37
2.3731337 -3.0610349 1.5317519 2447 38
2.382163 -3.0453825 1.5346907 2416 39
2.3813286 -3.0174491 1.5344191 2397 40
2.377851 -2.9865289 1.5332873 2438 41
2.3753979 -2.9572189 1.5324889 2424 42
2.3789549 -2.9355643 1.5336466 2485 43
2.3742681 -2.9041226 1.5321212 2462 44
2.3837869 -2.8900723 1.5352192 2477 45
2.3825228 -2.8632576 1.5348078 2459 46
2.3855152 -2.8417327 1.5357817 2483 47
2.3750134 -2.8046286 1.5323637 2498 48
2.1443107 -2.5130405 1.457279 44 49
1.8945361 -2.2044592 1.3759869 1201 50
1.9036642 -2.1956244 1.3789577 1694 51
1.9127557 -2.1867476 1.3819166 1612 52
1.9309318 -2.1880264 1.3878323 1578 53
1.9426098 -2.181926 1.391633 1548 54
1.9575622 -2.1793721 1.3964995 1522 55
1.9791362 -2.1839156 1.4035211 1500 56
1.9974679 -2.184721 1.4094872 1485 57
2.0118454 -2.1811199 1.4141666 1456 58
2.0402894 -2.1923423 1.423424 1429 59
2.0581071 -2.1920309 1.4292229 1440 60
2.0685329 -2.1838536 1.4326162 1460 61
2.0884256 -2.1854353 1.4390905 1479 62
2.117907 -2.1966445 1.4486855 1460 63
2.1304209 -2.190258 1.4527583 1494 64
2.1484177 -2.1893303 1.4586155 1486 65
2.1712761 -2.1930978 1.4660552 1431 66
2.1990552 -2.201493 1.4750961 1430 67
2.220686 -2.2035367 1.4821361 1450 68
2.2500572 -2.2128904 1.4916953 1464 69
2.2704341 -2.2132337 1.4983273 1480 70
2.2859304 -2.2087252 1.5033706 1434 71
2.3028457 -2.2054546 1.508876 1498 72
2.3368044 -2.2180519 1.5199282 1486 73
2.3709111 -2.2303791 1.5310286 1523 74
2.3894362 -2.2279296 1.5370579 1616 75
2.4043987 -2.2220721 1.5419276 1628 76
2.4294431 -2.2252581 1.5500785 1655 77
2.4610679 -2.2341013 1.5603712 1659 78
2.4790227 -2.2304201 1.5662148 1688 79
2.5115633 -2.2394722 1.5768055 1628 80
2.5464194 -2.250186 1.5881498 1658 81
2.5630684 -2.2447202 1.5935684 1670 82
2.5789847 -2.2385116 1.5987484 1670 83
2.6008105 -2.2372341 1.605852 1626 84
2.6412148 -2.2514467 1.619002 1659 85
2.6676474 -2.2535031 1.6276047 1707 86
2.6956408 -2.2565975 1.6367155 1686 87
2.7109721 -2.2490115 1.6417054 1678 88
2.7345631 -2.2480619 1.6493833 1651 89
2.7672505 -2.2542436 1.6600218 1647 90
2.797014 -2.2577467 1.6697086 1664 91
2.8367317 -2.2688427 1.6826352 1749 92
2.875833 -2.2790184 1.6953611 1756 93
2.9036064 -2.2799559 1.7044004 1825 94
2.9130385 -2.26649 1.7074702 1811 95
2.9347231 -2.2623856 1.7145276 1710 96
2.9610598 -2.2616305 1.7230992 1702 97
2.9704151 -2.2479012 1.726144 1706 98
2.9797132 -2.2341292 1.7291702 1681 99
2.9640284 -2.2019601 1.7240654 1689 100
2.7395248 -2.0177886 1.6509981 2431 101
2.7478704 -2.0050781 1.6537143 2353 102
2.7561634 -1.9923295 1.6564133 2920 103
2.8400834 -2.0332255 1.6837261 2805 104
2.8484921 -2.0200534 1.6864629 2499 105
2.8576393 -2.007395 1.6894398 2326 106
2.8659408 -1.9941427 1.6921417 2320 107
2.874187 -1.9808524 1.6948255 2283 108
2.8887761 -1.9718521 1.6995736 2157 109
2.8969297 -1.9584571 1.7022274 2364 110
2.9050279 -1.945025 1.704863 2335 111
2.9009738 -1.9236071 1.7035435 2322 112
2.9081185 -1.9096304 1.7058688 2284 113
2.9022305 -1.887265 1.7039526 2306 114
2.8913355 -1.8618773 1.7004067 2273 115
2.8916969 -1.8438364 1.7005243 2276 116
2.8944163 -1.8273616 1.7014093 2315 117
2.9011509 -1.8134346 1.7036012 2345 118
2.9004331 -1.7949468 1.7033675 2310 119
2.9020879 -1.7780001 1.7039062 2296 120
2.9069605 -1.7630574 1.705492 2288 121
2.8943846 -1.7377628 1.7013991 2274 122
2.8949294 -1.7204355 1.7015764 2273 123
2.8953867 -1.7031363 1.7017252 2242 124
2.8940885 -1.6849037 1.7013026 2290 125
2.8893521 -1.6648071 1.6997612 2270 126
2.8920434 -1.6490458 1.7006371 2269 127
2.8980184 -1.6351696 1.7025816 2289 128
2.8946762 -1.6161481 1.701494 2247 129
2.9013541 -1.6027296 1.7036673 2283 130
2.8936048 -1.5814966 1.7011452 2269 131
2.8967497 -1.5662674 1.7021688 2288 132
2.8998239 -1.5510393 1.7031693 2269 133
2.8934665 -1.5309048 1.7011002 2249 134
2.8955264 -1.5152812 1.7017707 2266 135
2.9000764 -1.5009829 1.7032515 2225 136
2.9054198 -1.4871062 1.7049905 2238 137
2.8978295 -1.4667515 1.7025203 2258 138
2.8875465 -1.445215 1.6991735 2197 139
2.8900678 -1.4301404 1.6999941 2224 140
2.8890653 -1.4133954 1.6996678 2208 141
2.8949018 -1.4000045 1.7015674 2197 142
2.8980818 -1.3853548 1.7026023 2208 143
2.9020646 -1.3711094 1.7038985 2208 144
2.8990219 -1.3536317 1.7029083 2220 145
2.8906577 -1.3338157 1.7001861 2160 146
2.8944166 -1.3196288 1.7014095 2204 147
2.8946123 -1.3038698 1.7014731 2154 148
2.8929791 -1.2873609 1.7009416 2163 149
2.8982925 -1.2739532 1.7026709 2160 150
2.8965096 -1.2574922 1.7020906 2116 151
2.8946459 -1.2410717 1.7014841 2114 152
2.8962348 -1.2261747 1.7020011 2129 153
2.892447 -1.2090876 1.7007684 2119 154
2.8876872 -1.1916964 1.6992192 2121 155
2.8908284 -1.1775972 1.7002416 2099 156
2.8947973 -1.1638463 1.7015333 2127 157
2.8942544 -1.1483301 1.7013566 2085 158
2.8989911 -1.134918 1.7028983 2106 159
2.8929491 -1.1173799 1.7009318 2093 160
2.8832381 -1.0985674 1.6977713 2091 161
2.8832867 -1.0835372 1.697787 2063 162
2.883266 -1.0685275 1.6977804 2092 163
2.8867726 -1.0548409 1.6989216 2096 164
2.8902211 -1.0411426 1.7000439 2078 165
2.8863971 -1.0248941 1.6987994 2084 166
2.8888156 -1.0108929 1.6995865 2075 167
2.8848431 -0.99472582 1.6982936 2032 168
2.8880367 -0.98105341 1.6993331 2054 169
2.8893588 -0.96676922 1.6997633 2028 170
2.8888016 -0.95189857 1.699582 2100 171
2.8872674 -0.93675905 1.6990826 2079 172
2.8820207 -0.92049897 1.6973751 2077 173
2.8849006 -0.90686113 1.6983123 2074 174
2.8886354 -0.89349419 1.6995279 2074 175
2.8886583 -0.87900758 1.6995354 2071 176
2.8794649 -0.8618235 1.6965432 2063 177
2.8784316 -0.8471458 1.6962069 2036 178
2.8819189 -0.83380908 1.6973419 2052 179
2.8835137 -0.81993884 1.697861 2060 180
2.8841293 -0.80581528 1.6980613 2078 181
2.887445 -0.79245281 1.6991404 2089 182
2.883332 -0.77710605 1.6978018 2005 183
2.8828382 -0.76277989 1.6976411 2027 184
2.8776624 -0.74728459 1.6959566 2060 185
2.8807352 -0.73395234 1.6969566 2040 186
2.8819015 -0.72014773 1.6973362 2042 187
2.8811557 -0.7058965 1.6970935 2026 188
2.8822019 -0.69210726 1.6974339 2031 189
2.877619 -0.67702323 1.6959425 2051 190
2.8804004 -0.66369188 1.6968477 2041 191
2.8831263 -0.65034789 1.6977348 2054 192
2.885797 -0.6369915 1.6986041 2005 193
2.8884122 -0.62362301 1.6994553 2020 194
2.880713 -0.60809666 1.6969495 2031 195
2.8710737 -0.59227127 1.6938123 2037 196
2.8716352 -0.57859766 1.693995 2020 197
2.8571784 -0.56201446 1.6892899 2064 198
2.7303524 -0.52422178 1.6480129 2519 199
2.7147083 -0.50826836 1.6429213 2593 200
2.7139795 -0.49517804 1.6426841 2553 201
2.7019398 -0.48012358 1.6387657 2509 202
2.7001522 -0.46695724 1.6381838 2542 203
2.7020636 -0.45444223 1.6388059 2603 204
2.703923 -0.44191852 1.6394111 2670 205
2.7630987 -0.43840283 1.6586705 2869 206
3.0575621 -0.47022542 1.7545071 2435 207
3.1781321 -0.4736062 1.7937478 2370 208
3.1800666 -0.45889786 1.7943774 2419 209
3.1866536 -0.4448334 1.7965213 2457 210
3.1903555 -0.43033862 1.7977262 2549 211
3.2279754 -0.42020562 1.8099699 2580 212
3.2599058 -0.40903026 1.8203621 2604 213
3.2615719 -0.3939473 1.8209043 2643 214
3.263175 -0.37885684 1.821426 2625 215
3.2599869 -0.36323652 1.8203884 2633 216
3.2605166 -0.34805346 1.8205609 2597 217
3.2619295 -0.33296826 1.8210207 2595 218
3.2632799 -0.31787676 1.8214602 2611 219
3.2674093 -0.30304065 1.8228041 2582 220
3.2809544 -0.28900078 1.8272126 2585 221
3.2859139 -0.27413622 1.8288268 2564 222
3.2936578 -0.25945395 1.8313471 2573 223
3.2947028 -0.24421754 1.8316871 2557 224
3.3004289 -0.22930351 1.8335508 2326 225
3.3070436 -0.2144026 1.8357036 1339 226
3.3743575 -0.2030737 1.8576117 737 227
3.3751676 -0.18746753 1.8578753 2139 228
3.3759131 -0.17185779 1.8581179 2490 229
3.0678439 -0.14206846 1.7578533 2991 230
2.8821702 -0.12017442 1.6974237 2983 231
2.7457943 -0.10180194 1.6530386 3017 232
2.7461903 -0.089080952 1.6531675 2656 233
2.7465334 -0.076358266 1.6532792 2519 234
2.7544291 -0.06380865 1.6558489 2648 235
2.7546673 -0.051048398 1.6559265 2702 236
2.7558038 -0.038300268 1.6562964 2673 237
2.7587886 -0.025560131 1.6572677 2678 238
2.7588682 -0.012780242 1.6572937 2705 239
2.7598457 -1.0915101e-07 1.6576118 2688 240
2.7645736 0.012806203 1.6591506 2711 241
2.7644937 0.025612272 1.6591246 2710 242
2.7624595 0.038391676 1.6584625 2717 243
2.7641749 0.051222701 1.6590208 2676 244
2.7696402 0.064157464 1.6607995 2555 245
2.9452043 0.081829019 1.7179389 2703 246
3.2081146 0.10392243 1.803506 2352 247
3.2276094 0.11949575 1.8098508 2472 248
3.2270825 0.13442548 1.8096794 2555 249
3.2264938 0.14935265 1.8094877 2493 250
3.1565073 0.16077459 1.7867098 1868 251
2.8139529 0.15653673 1.6752216 670 252
2.8132763 0.16956802 1.6750014 627 253
2.812546 0.18259607 1.6747637 964 254
2.9294209 0.20373063 1.7128021 1744 255
3.1571574 0.23410259 1.7869214 2552 256
3.2471917 0.25582236 1.8162241 2586 257
3.2527349 0.2713899 1.8180282 2586 258
3.2534728 0.28659907 1.8182684 2604 259
3.2560418 0.3019945 1.8191044 2562 260
3.2547574 0.31705296 1.8186865 2545 261
3.2496247 0.33172202 1.817016 2583 262
3.2482173 0.34675074 1.8165579 2531 263
3.2117565 0.35790533 1.8046913 2568 264
3.0287523 0.35185763 1.7451305 2788 265
2.8477528 0.34436408 1.6862221 2243 266
2.8434634 0.35719603 1.6848261 2197 267
2.8277969 0.36853278 1.6797273 2339 268
2.8215241 0.38099459 1.6776857 2405 269
2.8104887 0.39275321 1.6740942 2473 270
2.8069475 0.40549663 1.6729416 2543 271
2.7835801 0.41529241 1.6653364 2538 272
2.7818303 0.42818186 1.6647669 2609 273
2.7800272 0.44106317 1.66418 2614 274
2.7856891 0.45515308 1.6660229 2570 275
2.7894089 0.46899039 1.6672335 2517 276
2.7883749 0.48206684 1.6668969 2448 277
2.7882235 0.49530774 1.6668477 2402 278
2.7861416 0.50821775 1.6661701 2408 279
2.7961802 0.52337551 1.6694373 2319 280
2.8192465 0.54112619 1.6769445 2246 281
2.943197 0.57877994 1.7172855 2724 282
3.1883347 0.64182907 1.7970685 2617 283
3.23698 0.66706812 1.8129005 2593 284
3.2407095 0.68340129 1.8141145 2568 285
3.237843 0.69838572 1.8131815 2596 286
3.2321212 0.71274602 1.8113192 2579 287
3.2254126 0.72685915 1.8091359 2615 288
2.9008441 0.66835958 1.7035013 3323 289
2.7773554 0.65364754 1.6633105 3258 290
2.738446 0.6578989 1.650647 2830 291
2.7356899 0.67057896 1.64975 2785 292
2.7328813 0.68324625 1.6488359 2742 293
2.7290957 0.69566709 1.6476039 2757 294
2.7261832 0.70830387 1.6466559 2780 295
2.7232182 0.72092712 1.6456909 2785 296
2.7202005 0.73353672 1.6447089 2786 297
2.7171311 0.74613231 1.6437098 2772 298
2.7397568 0.7658425 1.6510737 3092 299
2.8706548 0.81631517 1.6936759 3290 300
3.0066881 0.86958104 1.7379495 2642 301
3.0030513 0.88348997 1.7367659 2745 302
2.999357 0.89738202 1.7355634 2995 303
2.9261355 0.89030856 1.7117327 3036 304
2.8968515 0.89601237 1.702202 3068 305
2.8055785 0.88215154 1.6724961 3119 306
2.7745745 0.8864916 1.6624055 2731 307
2.77087 0.89933527 1.6611997 2701 308
2.7671118 0.91216177 1.6599766 2548 309
2.8558037 0.95564288 1.6888424 2522 310
2.8853197 0.9801386 1.6984488 2527 311
3.0331588 1.0454043 1.7465646 2119 312
3.0287919 1.059433 1.7451434 2128 313
3.0243673 1.0734415 1.7437034 2172 314
2.9937718 1.0781078 1.7337457 2203 315
2.9560032 1.0799094 1.7214534 2257 316
2.8644137 1.0616038 1.6916447 2318 317
2.7067034 1.017777 1.640316 2616 318
2.6908197 1.025915 1.6351465 2555 319
2.6865375 1.038373 1.6337528 2581 320
2.6822031 1.0508113 1.6323421 2520 321
2.6778176 1.0632294 1.6309148 2372 322
2.6733804 1.0756274 1.6294707 2413 323
2.646698 1.0790458 1.6207865 2443 324
2.6005418 1.0742662 1.6057645 2413 325
2.5783648 1.0789795 1.5985467 2440 326
2.5314691 1.0731342 1.583284 2449 327
2.4987791 1.0728732 1.5726447 2455 328
2.4705408 1.074226 1.5634543 2462 329
2.4309189 1.0703654 1.5505588 2520 330
2.4141779 1.0762165 1.5451102 2684 331
2.4096892 1.0874046 1.5436493 2790 332
2.4051542 1.098572 1.5421734 2797 333
2.4153974 1.1164973 1.5455072 2797 334
2.4177051 1.1309127 1.5462582 2766 335
2.4129896 1.1421164 1.5447235 2788 336
2.4099615 1.1541198 1.543738 2797 337
2.4051497 1.1652879 1.542172 2781 338
2.4132452 1.1827136 1.5448067 2801 339
2.4109001 1.1951643 1.5440435 2820 340
2.4222591 1.2144411 1.5477403 2788 341
2.42063 1.2273871 1.5472102 2819 342
2.4163706 1.2390378 1.5458239 2819 343
2.4154799 1.2524263 1.545534 2811 344
2.4102602 1.2636187 1.5438352 2785 345
2.4109511 1.2779105 1.5440601 2798 346
2.4149663 1.2940329 1.5453669 2804 347
2.4248245 1.3133943 1.5485753 2814 348
2.426115 1.3282921 1.5489953 2790 349
2.4256411 1.3423032 1.5488411 2796 350
2.4200485 1.3535414 1.5470209 2784 351
2.4160883 1.3656926 1.545732 2767 352
2.4103987 1.3768867 1.5438803 2787 353
2.4113481 1.391872 1.5441893 2819 354
2.40555 1.4030441 1.5423023 2791 355
2.4155076 1.423401 1.545543 2759 356
2.4112375 1.435569 1.5441533 2758 357
2.4093962 1.4492024 1.5435539 2714 358
2.4149182 1.4673121 1.5453513 2732 359
2.413748 1.4814999 1.5449703 2729 360
2.4092205 1.4936897 1.5434968 2734 361
2.4152901 1.5124642 1.5454723 2741 362
2.415529 1.5277436 1.54555 2713 363
2.4124277 1.5409938 1.5445406 2687 364
2.4173918 1.5594324 1.5461563 2710 365
2.4108982 1.5706306 1.5440428 2749 366
2.4181044 1.5907446 1.5463883 2716 367
2.4122875 1.6024758 1.544495 2712 368
2.4056156 1.6136502 1.5423236 2725 369
2.3988972 1.6247939 1.5401369 2718 370
2.3897333 1.6342838 1.5371546 2738 371
2.1014135 1.4530969 1.4433175 3484 372
2.0182271 1.4096619 1.4162436 3288 373
1.9885702 1.4024718 1.4065914 3002 374
1.9803603 1.4100373 1.4039193 2712 375
1.9571474 1.4069293 1.3963645 2710 376
1.946575 1.4126403 1.3929236 2619 377
1.9211034 1.4075193 1.3846335 2635 378
1.9066505 1.4101719 1.3799297 2639 379
1.8875393 1.4092772 1.3737097 2611 380
2.7264824 -4.9839764 1.5938636 979 0
1.8012059 -3.2748003 1.3105038 400 1
1.814851 -3.2664361 1.3146826 1036 2
1.8284614 -3.2580097 1.3188506 700 3
2.6939967 -4.7324204 1.5839151 1038 4
2.7137148 -4.7199683 1.5899537 1006 5
2.7113986 -4.6699104 1.5892444 1054 6
2.7112329 -4.6242156 1.5891936 1086 7
2.7051647 -4.569283 1.5873352 1060 8
2.7094054 -4.5322556 1.5886339 1126 9
2.7010596 -4.4750352 1.586078 1150 10
2.7057376 -4.4398451 1.5875106 1129 11
2.7023628 -4.392118 1.5864772 1166 12
2.7080786 -4.3595595 1.5882275 1206 13
2.7114642 -4.323698 1.5892644 1239 14
2.7050409 -4.2729225 1.5872973 1239 15
2.6784632 -4.1916142 1.5791581 1255 16
2.6776283 -4.1511335 1.5789024 1302 17
2.6754246 -4.1090932 1.5782275 1329 18
2.6729217 -4.0671525 1.577461 1297 19
2.6882191 -4.0523453 1.5821457 1306 20
2.6824744 -4.0064435 1.5803864 1344 21
2.6797297 -3.9655566 1.579546 1286 22
2.6817238 -3.9320757 1.5801566 1306 23
2.6744981 -3.8857086 1.5779438 1349 24
2.6805067 -3.8588374 1.5797839 1356 25
2.6766741 -3.8183203 1.5786102 1363 26
2.678848 -3.7867255 1.5792758 1373 27
2.6796594 -3.7535868 1.5795244 1400 28
2.4701552 -3.4315646 1.5153651 1963 29
2.3959725 -3.2995565 1.4926472 2298 30
2.3968368 -3.2710829 1.4929118 2318 31
2.401042 -3.2473922 1.4941996 2352 32
2.3997686 -3.2166584 1.4938097 2385 33
2.4066181 -3.1969545 1.4959073 2333 34
2.4079628 -3.1702306 1.4963192 2366 35
2.3826549 -3.1093609 1.4885688 2418 36
2.3798752 -3.0782108 1.4877174 2471 37
2.3744488 -3.044059 1.4860556 2458 38
2.3773432 -3.0207796 1.4869421 2441 39
2.3794751 -2.9967659 1.487595 2424 40
2.3802166 -2.9712639 1.4878221 2415 41
2.3826542 -2.9480941 1.4885685 2462 42
2.3780789 -2.9166253 1.4871674 2462 43
2.3801877 -2.8935566 1.4878131 2488 44
2.3777366 -2.8652616 1.4870626 2449 45
2.3852327 -2.8490276 1.4893582 2445 46
2.3830888 -2.8215892 1.4887016 2463 47
2.3718047 -2.7838206 1.4852459 2535 48
2.0471621 -2.3857231 1.3858262 761 49
1.9007691 -2.1978238 1.3409944 1955 50
1.9099202 -2.1890154 1.3437968 1693 51
1.9190344 -2.1801653 1.346588 1627 52
1.9307324 -2.1741874 1.3501705 1604 53
1.9536064 -2.1804755 1.3571755 1536 54
1.9719415 -2.1815393 1.3627905 1535 55
1.987666 -2.1795995 1.367606 1497 56
2.0100844 -2.184721 1.3744715 1514 57
2.0312433 -2.1882524 1.3809513 1453 58
2.0416992 -2.1802692 1.3841534 1451 59
2.0656505 -2.1863742 1.3914882 1447 60
2.0781474 -2.1803336 1.3953154 1497 61
2.1035917 -2.1875379 1.4031075 1487 62
2.1236563 -2.1889689 1.4092522 1520 63
2.1520269 -2.1985939 1.4179405 1547 64
2.1756837 -2.2031608 1.4251852 1528 65
2.1897097 -2.1979163 1.4294806 1513 66
2.2086084 -2.197382 1.4352682 1476 67
2.2219505 -2.1912608 1.4393542 1475 68
2.2479227 -2.197278 1.4473078 1524 69
2.272577 -2.2017486 1.4548582 1532 70
2.3022666 -2.2107422 1.4639503 1514 71
2.3327849 -2.2201755 1.4732964 1521 72
2.3463051 -2.2133906 1.4774369 1549 73
2.3755686 -2.2211025 1.4863986 1623 74
2.3955956 -2.2200174 1.4925318 1630 75
2.4243186 -2.2266645 1.501328 1620 76
2.4473479 -2.2278693 1.5083805 1653 77
2.4784315 -2.2360497 1.5178996 1692 78
2.5037916 -2.2388196 1.525666 1668 79
2.5248275 -2.2375438 1.5321082 1659 80
2.5451655 -2.2354789 1.5383365 1654 81
2.5588944 -2.227546 1.5425409 1646 82
2.5985217 -2.2416751 1.5546764 1631 83
2.6197383 -2.2397513 1.5611739 1691 84
2.6484456 -2.2439358 1.5699654 1660 85
2.6847212 -2.2541256 1.5810745 1662 86
2.7076159 -2.252883 1.5880858 1686 87
2.7282908 -2.2496271 1.5944175 1719 88
2.7573071 -2.2529597 1.6033034 1696 89
2.7810931 -2.2518086 1.6105877 1736 90
2.7995942 -2.2462461 1.6162536 1823 91
