# .PCD v0.7 - Point Cloud Data file format
VERSION 0.7
FIELDS x y z intensity
SIZE 4 4 4 4
TYPE F F F F
COUNT 1 1 1 1
WIDTH 1353
HEIGHT 1
VIEWPOINT 0 0 0 1 0 0 0
POINTS 1353
DATA ascii
3.597203 7.5661879 4.2231331 378
3.6726289 7.7478418 4.1067982 398
2.7330968 5.8527069 2.2437127 245
2.449244 5.2606597 1.8610481 277
2.4408677 5.2584925 1.7053649 239
2.5148032 5.4341841 1.6040604 279
2.5799451 5.5918407 1.4899982 580
2.4375415 5.299233 1.2623562 324
2.4945149 5.4396148 1.1457021 714
2.423739 5.3013897 0.97409242 265
1.2809166 2.8102777 0.44271004 235
2.3183768 5.0864224 0.8012768 138
1.2453456 2.7406099 0.36220944 1731
1.2956702 2.8601027 0.30834568 317
1.3070749 2.8941443 0.24435517 299
1.3165647 2.9241452 0.18159442 293
1.3303384 2.9638541 0.12153096 271
1.3488349 3.0143659 0.063647933 273
1.3472366 3.0201225 0.0079264799 281
1.3371433 3.0068023 -0.04322575 362
2.3585892 5.3037033 -0.076245964 316
2.3712273 5.3487344 -0.16103199 380
2.4985311 5.6534615 -0.24962072 388
2.4097638 5.4696417 -0.31029388 408
1.7664194 4.0472636 -0.33979562 258
1.5956633 3.7025032 -0.35147914 256
2.0021105 4.7051649 -0.35896075 260
2.3224764 5.4931798 -0.3096199 426
2.3294055 5.5273142 -0.24223621 322
1.2651997 3.0118117 -0.089911595 282
2.2926905 5.4577565 -0.16293037 366
1.2547553 2.9966264 -0.042674098 310
2.2314484 5.3291802 -0.075891331 362
1.2383107 2.9669433 0.0077059669 164
2.2301147 5.3432665 0.013877931 370
1.2392696 2.9789047 0.062183436 96
2.2796109 5.4796338 0.11438515 342
1.2344368 2.9769542 0.12055901 94
2.1726086 5.2394395 0.21218386 318
1.1997691 2.9027977 0.17786302 266
1.2061977 2.9279158 0.2436647 327
1.1805688 2.8751049 0.30521825 257
2.1725037 5.2908192 0.56166804 358
1.1319522 2.7657704 0.35958126 347
1.1867163 2.9091485 0.45037234 154
2.1995752 5.3920984 0.83476388 424
2.144613 5.2747312 0.95151192 253
2.1136503 5.2157927 1.0774451 263
2.2272966 5.5145025 1.2871041 468
2.2151639 5.5027122 1.435205 598
2.2552311 5.6209025 1.6224325 261
2.0984101 5.2475471 1.6624697 412
2.4432178 6.1098161 1.9356443 226
2.057416 5.1623149 1.7822574 302
2.4973843 6.2662506 2.1633844 404
3.0443776 7.7951956 4.0083075 370
2.9195259 7.5010252 4.0574846 240
2.7699728 7.1411366 4.0470958 356
2.7244132 7.0478096 4.1692753 390
2.287796 5.9386749 3.6529949 418
2.2398696 5.8343425 3.7182543 386
2.2226305 5.8094525 3.822928 390
2.1280966 5.5816398 3.7779789 372
2.4249701 6.3602896 4.3050146 96
2.0947487 5.5132914 3.8257737 418
2.0126038 5.3341107 3.8475409 396
1.9147574 5.146584 3.8422887 388
1.9154197 5.2219691 3.8083181 386
2.0340037 5.5850987 3.9396269 276
2.0278554 5.5882502 3.8562491 344
2.056478 5.6875725 3.8250165 402
2.0944054 5.8134527 3.7977943 404
2.1192925 5.9038739 3.7320597 430
2.1476381 6.0046048 3.6604621 208
2.5997722 7.2687321 4.4310856 384
1.9655524 5.702147 1.9343418 426
1.8461952 5.3760009 1.6720648 448
1.8713806 5.4698935 1.5486856 249
1.8635147 5.4674797 1.3975788 474
1.8716458 5.5121446 1.259818 247
1.843262 5.4492126 1.1013258 742
1.8179877 5.3949833 0.95134711 460
1.0298038 3.0676875 0.46385229 273
1.8016052 5.3668108 0.81149322 272
0.99909818 2.9876497 0.37905362 299
1.7796628 5.3422832 0.55296981 247
1.9457277 5.8633261 0.47536096 516
1.9218353 5.8137779 0.34673679 668
1.7780856 5.399806 0.21266983 418
1.0264429 3.1415565 0.0079216864 236
1.0245908 3.148181 -0.043488439 236
1.7447644 5.3821135 -0.15572204 364
1.7629751 5.459743 -0.23170421 249
1.9379857 6.025486 -0.32859528 508
1.6851215 5.2601252 -0.34147239 424
1.2494956 3.995295 -0.36494079 276
1.5920436 5.1742921 -0.38003901 456
1.8001734 5.8991375 -0.32019633 239
1.7487085 5.7542496 -0.24288185 239
1.7014252 5.6219563 -0.16166478 586
1.6688826 5.5374827 -0.075970143 432
1.6433749 5.4756937 0.013702959 233
1.799081 6.0197425 0.12109102 484
1.8336895 6.1614318 0.24048252 438
1.6947262 5.7186103 0.33774751 666
1.5989258 5.4183049 0.43469903 263
1.5810395 5.3805432 0.550722 269
1.5384567 5.2580357 0.6591925 247
1.620021 5.560617 0.83022326 604
1.5874723 5.4723878 0.95217121 235
1.5611351 5.4048834 1.077069 269
1.5664909 5.4470119 1.2266091 241
1.5684159 5.4774785 1.3785305 466
1.6414304 5.7574935 1.6038017 608
1.5324786 5.3989387 1.6508994 265
1.5001444 5.3083529 1.7691257 206
1.4696805 5.8107376 4.103786 312
1.378696 5.9077015 2.107213 388
1.2974193 5.5885434 1.8399762 309
1.2503375 5.4140768 1.6345315 247
1.2831209 5.5854416 1.53523 494
1.2519332 5.4786272 1.3597174 490
1.2059821 5.3057051 1.1775362 416
1.2451519 5.5074492 1.0810179 241
1.1821599 5.2570062 0.90041739 269
1.3203471 5.9033141 0.86711574 602
1.2700239 5.7092605 0.70375192 594
1.2148645 5.4911642 0.55228573 263
1.2174076 5.5329027 0.43592656 251
1.2325028 5.6324916 0.32649681 452
1.2870338 5.9143491 0.22642665 534
1.1922559 5.5094252 0.10864276 428
1.2117848 5.6310735 0.013806025 594
1.2208823 5.7053308 -0.076640002 265
1.1646318 5.4733458 -0.15401626 249
1.2475767 5.8965526 -0.24340644 249
1.2033169 5.7199264 -0.30345032 436
1.2193346 5.8294725 -0.36819044 520
0.87027889 4.3093262 -0.383266 234
1.1783824 5.9769535 -0.42765766 444
1.10689 5.6834178 -0.30059883 426
1.155035 5.9672885 -0.24546441 458
1.0933266 5.6836047 -0.1592987 275
1.064738 5.5696521 -0.074485935 434
1.1306301 5.95154 0.014520295 466
1.0297058 5.454628 0.10698557 237
1.0289693 5.4854221 0.20878205 448
1.0427595 5.5945334 0.32225659 279
1.0256398 5.5381794 0.43339479 714
0.96604383 5.2501841 0.5242365 255
1.022688 5.5942698 0.68427956 269
0.97463971 5.3664613 0.78183728 241
1.0099778 5.597744 0.95052302 672
0.97208351 5.4235024 1.0548809 281
1.002228 5.6291108 1.2373967 522
0.97718281 5.5253563 1.3576009 237
0.98721266 5.6197634 1.5285022 261
0.97273016 5.5750051 1.6647274 247
0.94676244 5.4633932 1.7782874 360
0.72920191 5.7806954 2.0238695 243
0.71972877 5.7590261 1.8613535 366
0.67387468 5.4430718 1.6133661 271
0.65971559 5.3795962 1.4519089 428
0.68981522 5.6791911 1.3841745 506
0.6552127 5.4467297 1.1872662 432
0.64618284 5.4244337 1.0458552 261
0.6529274 5.5353384 0.93140376 724
0.62419456 5.3446717 0.77133715 261
0.65510994 5.6661129 0.68631041 606
0.60192412 5.259203 0.51983857 233
0.63748217 5.6272655 0.43577313 636
0.59035021 5.265521 0.30003783 430
0.63373739 5.7119312 0.21498756 620
0.59288275 5.4005446 0.10471174 253
0.58244836 5.3624458 0.012928767 261
0.60410345 5.6221495 -0.074275784 396
0.5993439 5.6390915 -0.15607971 416
0.62288076 5.9254947 -0.24062212 222
0.63472599 6.1058307 -0.31869283 416
0.61436808 5.977037 -0.37146077 434
0.50289601 5.0059304 -0.38713226 274
0.51480252 5.6476293 -0.3981061 314
0.52691072 6.0909367 -0.16826785 402
0.47343969 5.5473533 -0.073133081 241
0.46750662 5.5533404 0.013357808 396
0.44819316 5.3984208 0.10440342 430
0.45348716 5.5395813 0.20792225 444
0.42670378 5.287312 0.30037707 241
0.45545381 5.725935 0.44198748 462
0.42524195 5.4251828 0.5344007 241
0.43083423 5.5790286 0.67328906 257
0.42868927 5.6359448 0.81021619 458
0.41338438 5.5188007 0.92481089 450
0.40256366 5.458766 1.0479236 235
0.39737627 5.4745264 1.1879008 243
0.39852655 5.5793905 1.353368 426
0.41324452 5.8806381 1.5792193 277
0.091425888 5.3352537 1.2910496 282
0.085113943 5.3250279 1.1525768 428
0.086289749 5.8186712 1.1141121 512
0.083551705 6.1087165 1.0209016 384
0.069376089 5.5389442 0.7940402 418
0.063117586 5.5506024 0.66791326 310
-0.10696144 5.7505093 -0.075549833 362
-0.11337883 5.7398639 0.013760484 392
-0.12068932 5.7726665 0.11128272 408
-0.12659141 5.7385888 0.21472588 410
-0.13030252 5.6134925 0.31795985 406
-0.13724969 5.6326723 0.43354824 245
-0.14316916 5.610178 0.55111295 245
-0.51950169 5.6083651 0.67770916 416
-0.5358634 5.7133217 0.56352496 422
-0.54128051 5.7004323 0.44060653 245
-0.70897275 5.454659 0.54016691 414
-0.71432507 5.4467354 0.66098446 267
-0.7088533 5.3570704 0.77460068 249
-0.99768448 5.144834 1.1341746 190
-1.042931 5.3125257 0.90470272 241
-1.0447853 5.2896938 0.77289796 249
-1.0652555 5.3607616 0.6576395 434
-1.0761447 5.38308 0.53909183 402
-1.1106949 5.5227675 0.4334715 438
-1.337465 5.8436265 -0.16499384 236
-1.3618696 5.9188194 -0.079779156 344
-1.3771465 5.9537864 0.014647329 284
-1.3885229 5.9715548 0.11816201 280
-1.367425 5.8199387 0.33853903 326
-1.3298924 5.6309843 0.44520977 364
-1.4210387 5.9860454 0.60418159 552
-1.3194573 5.5297556 0.68404067 384
-1.3996924 5.8361549 0.86030483 384
-1.3902715 5.7675385 0.99139863 390
-1.4752066 6.0890603 1.1994804 370
-1.3980728 5.3381362 3.2831287 170
-1.3955367 5.3034916 3.3705227 314
-1.375132 5.2015653 3.4027467 342
-1.3477377 5.0742235 3.4056461 328
-1.2916378 4.8181896 3.3664584 334
-1.2669924 4.6405034 3.3658724 264
-1.3304157 4.7857766 3.4009902 348
-1.4109561 5.030477 3.4628499 346
-1.4380175 5.1043139 3.4399309 356
-1.4603357 5.1607256 3.3920565 340
-1.5034747 5.2898526 3.3799479 374
-1.6253333 5.4087896 1.661341 374
-1.6991495 5.6308355 1.5755967 362
-1.7630512 5.8183317 1.4709499 388
-1.6982539 5.5812917 1.2625676 414
-1.7368702 5.6846247 1.1379927 358
-1.7253532 5.6237154 0.98299277 392
-1.6561936 5.3761749 0.80638504 378
-1.7330871 5.6027761 0.70566332 402
-1.6368464 5.2701116 0.54192609 394
-1.6759406 5.3740959 0.43316463 360
-1.7076899 5.4537368 0.32361346 376
-1.7053337 5.4242687 0.21270722 282
-1.7434746 5.5232859 0.11162958 302
-1.7407972 5.4927297 0.013810818 358
-1.8340001 5.7637258 -0.079450794 412
-1.9630141 6.1446128 -0.17753963 242
-1.8764689 5.8504272 -0.24812768 332
-1.7672213 5.3398314 -0.4903512 288
-1.8994102 5.6516886 -0.4185541 304
-1.9834467 5.8569398 -0.32102588 322
-2.006371 5.9022212 -0.25175941 288
-1.8536144 5.4322848 -0.15797809 318
-1.9067626 5.5670018 -0.077296726 286
-1.8866807 5.4877181 0.01390909 372
-1.8659258 5.4070334 0.11024215 356
-1.8260623 5.2717953 0.20870727 342
-1.8596698 5.3488674 0.32067358 352
-1.9697644 5.6445041 0.46001685 372
-1.9571629 5.5876718 0.58140999 402
-1.9362005 5.5074592 0.70243782 376
-2.1413205 6.068511 0.92245454 404
-1.9087875 5.3896956 0.95546764 400
-1.927317 5.4221382 1.1017017 372
-2.0850699 5.8445516 1.3429456 400
-1.9363774 5.4080448 1.3898184 364
-1.1101928 -3.91401 2.3352683 233
-1.138793 -4.0327058 2.4931529 432
-1.5536178 -5.5262289 3.5281315 368
-1.4662874 -5.2389474 3.4406977 366
-1.169574 -4.1976194 2.8266098 414
-1.1225345 -4.0653048 2.8462181 332
-1.3822696 -5.0982366 3.6960959 260
-1.0718936 -4.027514 2.8535552 354
-1.1007687 -4.1750441 2.861768 388
-1.1109157 -4.2334757 2.8391268 324
-1.3472806 -5.1342149 3.4431963 204
-1.1118279 -4.2570915 2.7827048 300
-1.3753691 -5.2661676 3.442301 176
-1.0926294 -4.2035785 2.6693995 516
-1.0238528 -3.9578602 2.432307 249
-1.8902675 -9.3969851 0.18473895 172
-1.5660343 -9.2170286 5.912847 84
-0.96064001 -5.6940346 3.7457752 372
-0.72635055 -4.3671579 2.987746 374
-0.66261339 -4.1017079 2.9072287 448
-0.86355454 -5.5080948 3.8173573 360
-0.868828 -5.6272082 3.7738876 370
-0.99973232 -8.4100571 -0.1112495 234
-0.81532878 -6.9275441 -0.19198382 152
-0.96196645 -8.1734695 -0.22651228 222
-0.95487601 -8.2788916 -0.43264872 172
-0.95252442 -8.3437729 -0.51918119 90
-0.84546155 -8.2564001 -0.58262843 254
-0.8204205 -8.1999617 -0.42782712 240
-0.82420355 -8.3355236 -0.33827522 258
-0.68034166 -6.9631929 -0.19256158 322
-0.80800039 -8.3703661 -0.11046142 270
-0.83507866 -8.7572489 0.021085346 204
-0.58145487 -9.2857809 6.035253 260
-0.5005452 -8.302928 5.6135612 306
-0.45182481 -8.1235123 5.6929169 232
-0.41907808 -8.2240887 5.6381865 326
-0.45099247 -9.2746344 6.1544585 314
-0.063715056 -3.7028615 0.13854006 418
-0.060127329 -3.7478216 0.072242238 269
-0.055039283 -3.6985798 0.0088660568 301
-0.050737992 -3.6983328 -0.04858464 263
-0.046446912 -3.6993074 -0.1018246 267
-0.042290006 -3.7117333 -0.14990963 265
-0.038192514 -3.7327776 -0.19379759 263
-0.033939447 -3.7427003 -0.23139167 243
-0.024947478 -3.698981 -0.28463352 253
-0.0077016354 -3.6780415 -0.32064766 241
0.0093277628 -3.6510031 -0.25630048 239
0.01786118 -3.6600275 -0.19001289 255
0.021865558 -3.6189837 -0.14615685 253
0.025779027 -3.578552 -0.098495565 245
0.030260535 -3.6165614 -0.047507606 275
0.033655185 -3.5318296 0.0084657772 259
0.038313001 -3.5831296 0.069062732 263
0.045391731 -3.8290524 0.14325027 235
0.054455429 -3.8402607 0.29552785 214
0.24599952 -6.3625088 3.7883041 380
0.25308204 -6.3547974 3.9088011 284
0.16021563 -3.9089477 2.4742875 650
0.14997809 -3.5581882 2.3101578 273
0.18395521 -4.1362619 2.7941942 235
0.20330292 -4.1384225 2.8992023 255
0.22221337 -4.1320367 2.8332169 265
0.23341826 -4.1603045 2.7617719 265
0.23839924 -4.162766 2.7047076 269
0.24329996 -4.1637454 2.6378503 257
0.25053594 -4.2037482 2.588239 257
0.25706837 -4.2307367 2.5217865 253
0.25933924 -4.1878834 2.4084477 392
0.41860908 -6.6349149 3.6682858 278
0.30428913 -4.7355604 2.5073028 304
0.29969481 -4.5809264 2.3141258 222
0.33354175 -3.9122007 0.30212581 328
0.28514364 -3.2552497 0.12224124 412
0.29481801 -3.3213217 0.064264566 424
0.30069458 -3.3434963 0.0080463234 255
0.29620007 -3.2512538 -0.042884249 231
0.29336631 -3.1792846 -0.087875657 422
0.3010138 -3.2213292 -0.13066147 416
0.30176544 -3.1894419 -0.16631961 392
0.30444089 -3.1783569 -0.19739252 404
0.32365739 -3.2983613 -0.25501934 394
0.32747358 -3.1850653 -0.27913368 400
0.34291723 -3.1897249 -0.2252083 241
0.36215949 -3.2967007 -0.17217812 235
0.34357312 -3.0944471 -0.12573847 251
0.36793315 -3.2791734 -0.090819515 273
0.38153714 -3.3651478 -0.044486664 273
0.38296762 -3.3431265 0.0080654984 283
0.38091674 -3.2914162 0.063859902 261
0.38349155 -3.2803497 0.12354963 253
0.46283731 -3.880945 0.30074483 258
0.57305849 -4.2957492 1.6208856 406
0.57895124 -4.3017335 1.7392179 269
0.57269055 -4.2181373 1.8185112 271
0.57341892 -4.1870065 1.9156634 271
0.58065408 -4.2034535 2.0324481 265
0.58873928 -4.225759 2.150728 249
0.59665906 -4.2464995 2.2657757 253
0.60040826 -4.2373991 2.3614619 255
0.60635573 -4.2438717 2.4607186 259
0.60769534 -4.218194 2.5355918 259
0.61231184 -4.2155313 2.6180851 255
0.61338687 -4.1887159 2.6774046 243
0.6100443 -4.1323509 2.7096055 374
1.3620332 -9.0801296 6.196454 296
1.3862996 -8.9577456 6.3424711 286
1.4448963 -9.057579 6.2799683 324
1.472102 -9.0921726 6.1047368 336
1.5179557 -9.3068333 6.1168842 314
1.5836467 -9.6390944 6.1779685 298
0.72528619 -4.289763 2.4005942 344
0.73448265 -4.3136616 2.3120255 237
0.73614186 -4.2932158 2.1957412 251
0.73349655 -4.2481518 2.0648463 255
0.73184204 -4.2093949 1.9367192 249
0.73545796 -4.2012248 1.8220469 263
0.74053717 -4.2014952 1.7094622 279
0.74658257 -4.2071943 1.5981154 273
0.75507164 -4.2264457 1.4913241 271
0.76204455 -4.2370367 1.3806692 269
0.77492881 -4.2801256 1.2795175 271
0.7778154 -4.2677412 1.1620964 255
0.79255784 -4.3201699 1.0627055 239
0.7917285 -4.2875772 0.94359428 332
0.6791178 -3.6539271 0.71152747 370
0.70062178 -3.6514001 0.28609121 420
0.628407 -3.2545772 0.18770033 269
0.62494379 -3.2165604 0.12257767 289
0.60924995 -3.1164155 0.061200678 275
0.60950816 -3.0986137 0.0075693447 269
0.66527706 -3.3615041 -0.045012046 576
0.65884072 -3.3087659 -0.092855461 329
0.65454477 -3.2673666 -0.13457568 271
0.65779358 -3.2638912 -0.1728521 285
0.63305658 -3.1223886 -0.19696058 416
0.65467089 -3.1909044 -0.25064626 382
0.65891135 -3.1373954 -0.27948108 342
0.69156855 -3.218436 -0.23109061 392
0.76875049 -3.5375595 -0.18793908 524
0.73380691 -3.3579545 -0.13881269 596
0.68396461 -3.11253 -0.087710574 269
0.74474221 -3.3704016 -0.045340408 263
0.71748704 -3.2292435 0.0079288762 263
0.69931257 -3.1302404 0.061817311 277
0.69667459 -3.1014941 0.11891418 273
0.70624483 -3.1271045 0.18153788 261
0.88462055 -3.9169152 0.22738877 182
0.95134014 -4.1896472 0.33058915 255
0.95156306 -4.1681967 0.41985834 255
0.96456212 -4.2026291 0.5188244 263
0.96656346 -4.1889906 0.6162467 293
0.9592455 -4.1353393 0.70938981 317
0.96734244 -4.148344 0.81551129 285
0.96698183 -4.1250925 0.91694266 289
0.97374356 -4.1323256 1.0271957 283
0.97667223 -4.123498 1.1351852 281
0.98232383 -4.1259789 1.2476285 273
0.98422259 -4.1127129 1.3562381 275
0.99967164 -4.1559315 1.4847616 283
1.0149207 -4.1978717 1.6152807 273
1.0185714 -4.1916161 1.7284315 259
1.0352825 -4.2389164 1.8640821 281
1.03741 -4.2263179 1.9726379 291
1.0405539 -4.2179241 2.0808294 263
1.0434911 -4.208797 2.1858382 271
1.05879 -4.2493606 2.3138943 267
1.0618812 -4.2407312 2.412189 257
1.077464 -4.2818441 2.5343959 261
1.0919862 -4.3183203 2.6501255 247
1.1030298 -4.3407679 2.7526548 243
1.110523 -4.349081 2.8388293 235
1.1207354 -4.3678713 2.9251113 243
1.1231521 -4.3354197 3.0224285 231
1.1378585 -4.309536 3.1187782 408
1.1671258 -4.3385682 3.0761449 346
2.5562174 -9.3718586 6.3013701 176
2.6066396 -9.5131712 6.238369 224
1.16738 -4.2219191 2.6061528 255
1.1649363 -4.1941051 2.4985528 263
1.1736839 -4.206614 2.4097733 265
1.1622434 -4.1469917 2.2755861 251
1.1760143 -4.1774187 2.1876388 261
1.1737702 -4.1509528 2.0661423 255
1.1840148 -4.1686788 1.9643806 267
1.1950611 -4.1890216 1.8609393 271
1.1945974 -4.1690307 1.73773 265
1.1967969 -4.1584554 1.6184335 263
0.71795809 -2.4837804 0.89807564 339
0.69159293 -2.3821919 0.79554158 2305
0.71996629 -2.4692061 0.75659168 385
0.73241657 -2.5010746 0.69813764 393
0.74977297 -2.5493581 0.64293796 375
0.77188045 -2.6133072 0.58972001 315
0.79324108 -2.6741707 0.53402168 285
1.2013133 -4.0498624 0.80874199 324
1.2375971 -4.1544724 0.72438854 281
0.78417426 -2.6212497 0.3921957 251
1.2049161 -4.027658 0.60262489 386
1.2286401 -4.0896268 0.513807 311
1.2317405 -4.082727 0.41878328 267
1.168519 -3.8569629 0.31010476 311
0.95315659 -3.1329706 0.18543887 371
0.88641834 -2.9014957 0.1134937 299
0.93570119 -3.0501087 0.061489724 279
0.93352801 -3.0304635 0.007600504 253
1.2249795 -3.9765873 0.0099734142 230
0.98927015 -3.198205 -0.043974418 281
1.0084147 -3.2467129 -0.093570791 281
0.94629806 -3.0342717 -0.12836139 273
0.99468046 -3.1764193 -0.17280026 295
0.89482987 -2.8459418 -0.18443459 395
0.74293458 -2.3438025 -0.18919306 386
0.75747371 -2.3516467 -0.21538629 408
0.75390625 -2.3038161 -0.17016672 386
0.76010591 -2.3046186 -0.12598398 386
0.76475835 -2.3097003 -0.098258398 402
0.77660471 -2.3363781 -0.06776385 402
0.79664141 -2.3873749 -0.033059619 428
0.80488092 -2.4027662 0.0060736919 249
0.7903195 -2.3502152 0.047788944 402
0.82907832 -2.4560256 0.096970566 253
0.8222096 -2.4263721 0.145072 255
0.82616562 -2.4287469 0.19740216 241
0.81362855 -2.382807 0.24726294 406
0.81895578 -2.3893273 0.30391186 386
0.82508439 -2.3981082 0.36353308 327
0.83004558 -2.4034476 0.42490867 371
0.80616176 -2.3255308 0.47121772 3777
0.8267644 -2.3760273 0.54445457 397
0.83678406 -2.3958509 0.61401284 367
0.84041637 -2.3973868 0.68054187 427
0.84954834 -2.4144561 0.75292301 459
0.8545838 -2.4197807 0.82302672 403
0.86538893 -2.4413474 0.89971626 355
0.85364735 -2.3993754 0.95249367 311
0.86001176 -2.4083965 1.0247103 301
0.8417331 -2.3485973 1.0658071 371
0.85240233 -2.3697026 1.1415538 295
3.2762129 -9.0419598 4.8479156 264
3.2183769 -8.8502522 4.9758301 304
3.0948594 -8.4798889 4.980907 332
2.9936213 -8.1730299 4.99611 250
2.2766345 -6.1932502 3.9258468 190
2.2672884 -6.1457882 4.0260911 336
2.2474711 -6.070363 4.0938797 362
2.2508285 -6.0577974 4.1920247 368
1.5617466 -4.1735263 3.0073249 416
1.5713212 -4.1404052 3.0987124 241
1.5943536 -4.1429873 3.0394232 290
2.2122395 -5.7485871 4.2173409 194
2.2777872 -5.8781404 4.1782918 370
2.3170843 -5.959013 4.1473999 368
2.3378103 -5.9917154 4.067688 312
3.1273847 -7.9879336 5.2722998 264
3.1731663 -8.0772381 5.1632195 208
3.2400479 -8.2194386 5.071281 312
3.3372886 -8.4373636 5.0065122 292
3.4550109 -8.7054338 4.9487343 326
3.5131402 -8.8219795 4.7866979 336
0.98676783 -2.4285433 0.9105444 395
0.97597158 -2.394001 0.82913452 649
0.9751792 -2.3841372 0.75772047 357
0.9846645 -2.3993645 0.69477373 333
0.98471588 -2.3915825 0.62577105 335
0.96426171 -2.3342059 0.54656976 1993
0.96268666 -2.3227389 0.48137167 1059
0.99938959 -2.4034035 0.43496275 317
0.98178315 -2.3533535 0.36551958 321
0.98975867 -2.3647325 0.30845144 408
1.0079767 -2.4004319 0.25566792 432
0.99095374 -2.3522406 0.19640478 233
0.99230963 -2.3478281 0.14433703 233
0.98695928 -2.327631 0.09457808 412
1.0007395 -2.3525181 0.049272712 231
1.0012977 -2.3462665 0.0061144391 412
1.035814 -2.4193633 -0.03457009 414
1.0470008 -2.4376574 -0.073018782 392
1.332868 -3.0933154 -0.13602836 341
1.3599193 -3.1460426 -0.17793295 295
1.3215122 -3.0474613 -0.2053524 311
1.3028698 -2.9854641 -0.25064626 293
1.2137449 -2.746361 -0.26176381 243
1.3894751 -3.1049051 -0.23879363 361
1.2567744 -2.790966 -0.15890573 277
1.3375983 -2.9612691 -0.13122642 413
1.4002022 -3.0902994 -0.093378201 339
1.3330418 -2.9330006 -0.042319465 273
1.4784259 -3.2428815 0.0085424781 285
1.0736042 -2.3476844 0.049754456 410
1.2041025 -2.6249886 0.10803583 676
1.4960996 -3.2515891 0.20268244 281
7.0788751 -15.016087 4.0165987 124
4.0473804 -8.3068838 4.8823962 322
3.9529438 -8.0891695 4.9678626 302
4.2901492 -8.7534437 5.5954843 308
4.0853138 -8.3110476 5.5098886 332
3.9246333 -7.9608097 5.4550424 100
3.8841302 -7.8556485 5.5424256 316
3.8486457 -7.7611632 5.6194792 344
3.8443444 -7.5314765 5.7895927 154
3.8829186 -7.5636048 5.6351418 320
3.9599872 -7.6917405 5.6118603 348
4.0230842 -7.7920604 5.5461674 348
4.1926613 -8.0974026 5.6042728 348
4.2969804 -8.2753372 5.5477257 346
4.4915013 -8.6254616 5.5820432 380
6.9238682 -13.2215 7.8858337 162
1.9577905 -3.5556359 0.31232965 279
1.8038758 -3.2671111 0.21133247 295
1.7739632 -3.2041392 0.13700737 273
1.774717 -3.1967268 0.070469424 271
1.7972345 -3.2284508 0.0088564688 277
1.8037547 -3.2313321 -0.048610907 275
1.6868736 -3.0137098 -0.095056474 267
1.6539334 -2.9468296 -0.13647224 297
1.6349221 -2.9050515 -0.17305949 273
1.7987611 -3.1874988 -0.2262702 275
1.5203698 -2.6796222 -0.23706672 434
1.4542055 -2.5354903 -0.25481588 293
1.7020593 -2.935957 -0.2382334 239
1.7334059 -2.9740839 -0.17871062 327
1.7075307 -2.9218876 -0.136674 267
1.8718679 -3.1945801 -0.10190714 291
1.9424815 -3.3062749 -0.050370935 267
1.9596766 -3.3266954 0.0092543513 281
1.8843709 -3.1903734 0.071413636 263
1.9772323 -3.338738 0.14515679 275
2.0373359 -3.413053 0.39034316 312
1.9619857 -3.2781703 0.4596906 283
3.0632479 -5.0646582 1.28097 232
3.0581596 -5.0430179 1.4269743 240
3.0179021 -4.9637423 1.5561897 222
3.0165241 -4.9485269 1.7048006 270
4.6690211 -7.482316 4.6600232 350
4.5318575 -7.2437453 4.7147112 346
4.6420488 -7.4007568 5.0145297 550
4.6271214 -7.3579454 5.1714005 376
4.4937372 -7.1274691 5.1785722 328
3.8387742 -6.0574031 4.6518793 354
3.7585671 -5.9005003 4.7213211 424
3.7436204 -5.8172126 4.8404126 308
3.7837231 -5.8199515 4.752912 376
3.9357896 -6.0231886 4.7688766 412
4.6602664 -7.0779305 5.2084184 324
4.7395587 -7.1801987 5.1187353 424
4.6813712 -7.0741744 4.8691664 398
4.7992029 -7.2339506 4.7900767 376
4.8906178 -7.3532 4.6660962 370
8.7245455 -13.019046 7.1040559 200
2.980329 -4.3919787 1.7022452 230
3.1086698 -4.5356269 1.190016 302
2.1776865 -3.1071463 0.073128641 328
2.2294466 -3.165338 -0.050856914 328
2.4239299 -3.4245372 -0.16944025 243
2.263068 -3.1894138 -0.20302604 265
2.0097933 -2.8255012 -0.21436125 424
1.9394474 -2.7132471 -0.25663048 273
1.9253327 -2.6672192 -0.28677642 239
1.9884578 -2.7278812 -0.23697291 271
2.6473355 -3.6141 -0.23257785 428
2.4498515 -3.3040791 0.07927569 249
3.1391521 -4.2234735 0.19685698 228
3.1334643 -4.2056165 0.29698488 292
3.1174078 -4.1739311 0.40086526 362
3.1212606 -4.1689878 0.5114336 332
3.1502261 -4.1975121 0.6314773 302
3.1730807 -4.2177444 0.75658011 228
3.3098063 -4.3677273 1.1859971 216
3.3605828 -4.4240565 1.3441966 206
3.239208 -4.2438636 1.5704709 274
3.2518673 -4.2501879 1.7162932 272
5.660131 -7.2569704 4.8627748 320
5.3750072 -6.8748999 4.8151989 388
5.3246179 -6.7941666 4.9547911 356
5.2590828 -6.6944885 5.0650477 368
4.9835358 -6.3285847 4.950799 628
4.7416077 -6.0069895 4.8400679 404
4.6595883 -5.8889813 4.8711948 380
4.5667133 -5.7441225 4.9523525 306
4.6357846 -5.7209735 5.0416007 248
4.6827769 -5.7515736 4.9158325 348
4.7517471 -5.8224564 4.8750043 384
5.093914 -6.2269411 5.0880847 614
5.2577844 -6.4120245 5.0963645 538
5.4503741 -6.6311665 5.1069756 350
5.5908766 -6.7860198 5.0468879 336
5.7453027 -6.9569497 4.9784913 370
3.5857244 -4.2505746 1.783479 276
3.6541514 -4.1619701 -0.22367406 248
3.646486 -4.1435204 -0.28654876 248
3.6334078 -4.1189871 -0.33955956 232
3.5082278 -3.9584987 -0.4070029 364
3.1198158 -3.4874275 -0.40793121 374
4.0547318 -4.4903216 -0.42471653 280
3.7489421 -4.1323237 -0.28965947 268
3.7853119 -4.1626844 -0.22722508 180
3.9076858 -4.2276273 0.44298488 248
3.9026694 -4.2123713 0.56391585 318
3.90432 -4.2043447 0.69037217 372
3.9265668 -4.2184477 0.82610834 338
3.9462652 -4.2297463 0.96667546 188
6.1996055 -6.4323082 4.7202883 262
5.9696007 -6.1792932 4.7407994 392
5.7760754 -5.9651113 4.766118 368
5.7693243 -5.9443111 4.9285278 288
6.0511484 -6.2202334 5.3335629 330
5.1904736 -5.3231444 4.7021618 342
5.1626 -5.2822733 4.7911963 324
5.00772 -5.1000857 4.8236909 372
4.8747058 -4.9187374 4.845572 288
4.9705629 -4.96913 4.8122315 322
5.0984459 -5.0733724 4.7672195 222
5.9492702 -5.9200125 5.5627689 172
5.1541557 -5.1169267 4.7111979 298
5.2096629 -5.1600504 4.637485 368
5.43576 -5.3715043 4.6968446 332
5.8824177 -5.7994146 4.9147224 400
5.9209151 -5.8238449 4.7671137 552
6.1835909 -6.0681024 4.7804146 320
6.3728032 -6.2392902 4.7123461 334
6.7419934 -6.2282195 -0.37067831 194
5.2923741 -4.8777056 -0.37364882 246
4.4743881 -4.114212 -0.37578008 426
3.6113396 -3.3052118 -0.37669826 336
3.2767556 -2.9711576 -0.38561094 346
4.0421634 -3.6311471 -0.38143957 360
16.221029 -14.36887 0.051940374 150
6.9219499 -5.9478245 2.6846163 239
6.8876314 -5.7944255 4.7557931 220
6.6340709 -5.5679669 4.778965 248
6.4740195 -5.4208522 4.8467646 344
6.3983068 -5.3448296 4.9602289 372
6.1644793 -5.1373763 4.9319487 376
6.2316823 -5.1811485 5.1255007 348
6.1654201 -5.1139598 5.1960864 366
6.5992832 -5.4480448 5.7752271 306
6.5240207 -5.3351841 5.8970132 192
6.6250701 -5.366713 5.8376131 264
6.0685816 -4.8926406 5.1666512 288
6.1869302 -4.9762287 5.150373 366
7.1007123 -5.6976471 5.7578368 164
6.3743429 -5.1026483 5.0183458 266
6.4957547 -5.18749 4.9459124 216
19.268745 -14.563241 0.90353841 108
5.1792545 -3.858108 -0.33528331 288
4.3957267 -3.266516 -0.33857229 352
3.6940377 -2.7318068 -0.35352862 334
3.3603954 -2.4610262 -0.36311695 390
4.1062603 -2.9780951 -0.35608962 378
5.5567198 -4.0104041 -0.35576218 216
15.956402 -11.375877 0.3776868 180
6.830821 -4.8579936 0.31356558 174
6.8197041 -4.8381886 0.47349104 338
6.8576097 -4.8531194 0.64644796 237
6.7668266 -4.7771044 0.81342667 326
12.913445 -8.8260784 6.6820173 232
6.4661374 -4.321207 4.918642 240
6.4026909 -4.2680693 4.9914646 318
6.2832313 -4.1674409 5.0882864 174
6.7777429 -4.4503121 5.6734242 232
7.0434618 -4.5781965 5.7517409 286
6.4479418 -4.1592903 4.9773149 248
10.955442 -7.0489254 8.2390728 158
15.230322 -9.5270872 6.7189512 210
5.9584627 -3.5470972 -0.28004652 248
5.0028071 -2.9703469 -0.3020505 310
4.3782239 -2.5926442 -0.31456926 324
3.7147074 -2.1881208 -0.33173996 400
3.4023862 -1.9829551 -0.34331533 364
4.1100059 -2.3699083 -0.33305058 318
5.2921586 -3.0352309 -0.31672272 262
14.563994 -7.9321685 5.7605467 104
11.803361 -6.2175174 8.4373798 244
11.497948 -5.8372245 8.5466318 160
11.213104 -5.5787683 6.6174664 140
11.498619 -5.6545086 5.4739976 222
5.7019835 -2.6337881 -0.25365597 224
4.8801718 -2.2473369 -0.27892751 334
4.2940655 -1.9714034 -0.29210883 296
3.7117834 -1.6936851 -0.31394079 384
3.4131401 -1.5383484 -0.32637972 366
4.058146 -1.8064945 -0.31183225 316
5.2111816 -2.3053219 -0.29582906 308
6.3795199 -2.8133466 -0.28157994 164
6.5678587 -2.8510902 0.26784661 244
11.432501 -4.7130713 5.2826791 292
10.406997 -4.1778231 6.8923707 154
7.0415726 -2.4818568 0.89835584 287
7.0425072 -2.473017 0.73299289 245
6.8767567 -2.4058669 0.5605976 245
7.1349077 -2.4868953 0.42786628 261
7.0677576 -2.4543102 0.27988383 237
7.0213194 -2.42906 0.14319339 428
6.8334928 -2.3552194 0.017324643 245
7.277297 -2.4987512 -0.10107023 251
7.0132341 -2.3989897 -0.20400688 326
5.5555043 -1.893163 -0.23703074 276
4.7651267 -1.6176646 -0.26124829 306
4.249032 -1.4369653 -0.27729979 368
3.6987267 -1.2413163 -0.30020779 380
3.4128518 -1.1277927 -0.31335232 390
4.071434 -1.3245203 -0.30055785 412
5.1006861 -1.646288 -0.27825353 282
6.1183696 -1.9669297 -0.25954744 274
7.1448193 -2.2877822 -0.20648302 233
7.0266681 -2.2409654 -0.096880317 404
7.0327053 -2.2339175 0.017686572 382
7.1541152 -2.2633491 0.14461936 235
7.2302599 -2.2782271 0.28358471 245
7.1063499 -2.2301364 0.42176038 276
18.45001 -5.649394 3.6941514 122
15.729115 -4.6773067 6.1374359 114
12.155661 -3.5840824 5.4138913 296
11.774955 -3.0028968 5.508358 270
17.398731 -4.2873125 4.8002782 228
17.489386 -4.2882037 4.3568807 184
17.570206 -4.2434254 3.0205107 158
4.528666 -1.0274076 -0.24108048 124
4.1631775 -0.93942237 -0.26384822 334
3.7172558 -0.82976955 -0.29307276 314
3.4240222 -0.74769181 -0.30553588 294
4.0612316 -0.86716831 -0.29152429 360
18.631474 -3.798291 0.71131688 310
18.626888 -3.7749257 1.076224 322
18.572861 -3.7415915 1.4578452 316
18.562412 -3.7171543 1.8590654 316
14.474961 -2.7596638 4.3346691 186
12.204055 -2.239114 5.6243711 150
11.255964 -1.9711521 7.0232754 174
8.2116518 -1.4282537 5.2714243 190
8.1248856 -1.4034802 5.348464 244
7.9342971 -1.351685 5.4317565 318
7.9518342 -1.2791213 5.5144629 262
8.0951242 -1.2829754 5.4323869 274
8.2527943 -1.2981917 5.4192109 202
11.407022 -1.7673432 7.0944872 172
12.445465 -1.8105478 5.372642 248
6.2423749 -0.76123488 -0.17308258 394
5.2763257 -0.63724297 -0.21463509 362
4.6455903 -0.5556218 -0.24289505 370
4.1926403 -0.49652883 -0.26100981 394
3.709054 -0.43057004 -0.28731874 370
3.5514767 -0.39564115 -0.31152847 418
4.0787425 -0.43529943 -0.2879529 362
4.9464264 -0.51633722 -0.25818941 366
5.7298622 -0.5914256 -0.23263231 396
7.01788 -0.71617889 -0.19415732 274
15.123959 -1.2789745 4.4647655 288
9.8053541 -0.69236028 5.8483763 200
9.5656986 -0.66433227 5.8933096 206
8.9842196 -0.61351979 5.6952977 274
9.0194006 -0.60543978 5.8638282 142
8.3978205 -0.50523865 5.8866935 316
8.6793346 -0.48191705 5.9517331 174
8.5316782 -0.45393276 5.662765 242
8.9286165 -0.46470791 5.7996116 190
9.4737787 -0.48210749 5.9994392 190
9.5428696 -0.47455522 5.872365 116
15.344817 -0.54984742 4.9244175 182
17.611778 -0.59030706 4.7205801 182
6.196723 -0.10735381 -0.17057891 210
5.329958 -0.086178064 -0.21528073 362
4.7460728 -0.071252778 -0.24642053 290
4.3243284 -0.059917212 -0.26736537 308
3.756644 -0.043369643 -0.2890833 372
3.4538171 -0.023899971 -0.30110654 360
4.1517715 -0.0095358919 -0.29145429 332
5.003262 7.722163e-05 -0.25974476 338
5.7023478 0.0066761798 -0.23029187 294
6.9843364 0.016246431 -0.19223143 140
9.8156576 0.32911685 5.8432631 198
7.3734827 0.26427364 4.6663494 330
7.1111178 0.26310039 4.615962 284
6.7685351 0.2660735 4.5714021 358
6.3470554 0.27888051 4.4454055 392
6.6410389 0.3225359 4.5523553 402
6.9435425 0.35330757 4.6081095 376
7.341794 0.38206857 4.7688837 340
17.857235 1.467914 0.67027074 487
19.052366 1.566157 0.71512991 198
6.1465225 0.53386223 -0.16980855 322
5.2802644 0.46476397 -0.21407016 286
4.7338119 0.42217267 -0.24673161 296
4.3101821 0.38941434 -0.26755047 318
3.726965 0.34539798 -0.28800923 344
3.4386446 0.33470845 -0.30119342 402
4.1412678 0.42241693 -0.29222459 340
5.014987 0.52324629 -0.26176673 326
5.6996942 0.60133767 -0.23146209 350
7.0423651 0.75121444 -0.19492768 314
14.469737 1.5942386 0.28056735 499
14.506145 1.6151993 0.54601085 279
7.6028786 1.0516158 4.5665197 278
7.2460232 1.0193094 4.6278639 332
5.7695971 0.81842005 3.7800603 426
5.5451684 0.79964781 3.7809725 326
6.9538164 1.0027837 4.7414594 290
5.3527222 0.79715776 3.7866783 266
6.8746619 1.0238137 4.8633447 230
5.502552 0.84546727 3.8117077 354
5.6250052 0.87758803 3.773335 356
7.1340833 1.1214643 4.6845317 302
9.0137415 1.416943 5.9187927 168
7.2448101 1.147441 4.6390886 300
7.4212012 1.1841724 4.6188259 300
11.90123 1.9836882 5.7789779 174
9.1272049 1.5429947 3.9544468 236
18.68902 3.2928126 5.083622 188
14.4473 2.7178307 0.549936 1377
14.492828 2.7437432 0.28428641 557
6.1483974 1.171351 0.015002067 388
5.2469888 1.0058984 -0.070177808 414
5.183435 0.99992716 -0.14529471 354
5.1662846 1.0028054 -0.21253675 364
4.6262469 0.90352333 -0.24470964 328
4.2063727 0.82656878 -0.26502058 322
3.6925366 0.73445547 -0.28969708 358
3.4087956 0.69440615 -0.30327779 374
4.0858421 0.85200018 -0.29299489 404
4.9170332 1.0371827 -0.26088536 378
5.0367126 1.0685015 -0.20793657 348
5.0660243 1.0808318 -0.14257096 422
5.5179329 1.183916 -0.074131303 434
6.0422578 1.311022 0.11916404 344
8.9433279 2.1250837 3.9269471 204
8.8180399 2.1060693 4.1095934 154
7.311686 1.8089029 4.6292982 308
5.903707 1.4678042 3.8474665 332
7.0380573 1.7584711 4.7057557 242
5.3398643 1.347279 3.7166417 386
6.7051697 1.7247435 4.8444257 164
5.2550521 1.3776437 3.7196212 138
8.7743521 2.3219254 6.01579 238
7.1097832 1.8902204 4.7721491 380
9.8392115 2.6280348 6.4409518 76
7.2574873 1.9474509 4.6183023 376
8.3018923 2.2379789 5.1156678 172
8.1071835 2.2055924 4.6359634 102
7.8420467 2.1529298 4.0993471 170
8.1013403 2.2341745 4.0251546 338
8.3385162 2.3099427 3.9221556 232
9.3953142 2.6026976 4.4192371 200
9.9181118 2.759871 4.3979764 292
6.2701745 1.8544903 0.50313383 237
6.0563731 1.7988708 0.35776135 548
5.7255473 1.7078029 0.2235108 364
6.796155 2.0271411 0.2653046 190
5.6259437 1.685177 0.11319042 438
5.3980684 1.6237122 0.013511209 434
4.6941128 1.4178762 -0.064411752 247
4.6384869 1.4069268 -0.13340922 408
4.6042509 1.4023479 -0.19437812 360
4.5132818 1.3803358 -0.24502072 392
4.1112843 1.2625877 -0.26588446 330
3.6221349 1.1215254 -0.29176852 350
3.3544741 1.0556579 -0.30657807 348
4.0191145 1.2852523 -0.29621613 300
4.5272193 1.4592729 -0.24693899 374
4.5231819 1.4637371 -0.19199732 382
4.6213851 1.5014114 -0.13373937 257
5.3301649 1.7384959 -0.073645331 718
5.3181453 1.7413697 0.013412937 249
6.5309186 2.1468406 0.1324987 568
5.8067179 1.9162112 0.22874437 556
5.7433543 1.9026555 0.34260964 710
6.1894236 2.0583711 0.50190628 237
8.8793955 3.1132777 4.01966 188
7.5489583 2.6664193 3.8346529 228
6.7591929 2.3962479 3.6150055 138
6.7498517 2.4017184 3.7854805 246
6.7885575 2.4243424 3.9774787 240
6.9183664 2.4797163 4.2185173 262
6.7612386 2.4322283 4.2750721 150
6.2832088 2.2684681 4.1056809 176
6.2654376 2.2702379 4.2146807 352
6.242053 2.2699378 4.308485 360
5.5432892 2.0303454 3.9840341 362
5.7288699 2.1284168 4.2762804 332
5.355515 2.0179305 3.918483 394
6.2085576 2.3721867 4.2034559 312
6.1912847 2.3737991 4.0753112 336
6.1720123 2.3745925 3.9345391 354
6.1935072 2.3910809 3.8108034 322
6.234302 2.4151216 3.6890597 308
6.268888 2.4368532 3.5537641 242
6.4831305 2.5287716 3.5078743 268
6.350111 2.4853432 3.2661722 280
6.3158412 2.4803491 3.0757957 314
6.2807508 2.4749594 2.8839254 318
6.2463183 2.469732 2.6913986 326
6.0143647 2.4750211 0.63868117 506
4.9793706 2.0558326 0.41452152 251
5.0040102 2.0727847 0.30670911 287
5.0762548 2.1095848 0.2056419 285
5.0745716 2.1157732 0.10596427 293
4.8525639 2.0297942 0.012607585 275
4.4053988 1.8487313 -0.062756799 257
4.3218169 1.8195394 -0.12906221 406
4.312305 1.821403 -0.18905158 370
4.3069906 1.825025 -0.24284321 372
4.0902758 1.7387797 -0.2747699 430
3.5090559 1.5012857 -0.29368654 364
3.2240136 1.3970091 -0.30631751 418
3.948915 1.7328457 -0.30272868 408
4.2169585 1.8621075 -0.23931773 384
4.2691164 1.8910362 -0.18856736 418
4.1180625 1.82982 -0.12402738 312
4.8952761 2.1819522 -0.070401095 297
4.7900019 2.1416657 0.012576425 283
4.0623088 1.8219478 0.085808128 1355
5.044167 2.2693155 0.2069129 281
4.0787406 1.8406496 0.25339544 252
5.1093178 2.3128462 0.43155348 245
5.7732234 2.6214187 0.62265301 287
5.7690763 2.6275792 0.76276624 273
5.7623653 2.6325765 0.9081232 275
5.7735868 2.6457701 1.0612828 271
5.775629 2.6547844 1.2169677 261
5.7408586 2.6468513 1.3681165 249
5.6892295 2.631022 1.5165718 416
5.6650333 2.627748 1.6728909 404
5.6338167 2.6211891 1.827842 376
5.6217375 2.6234925 1.9896175 239
5.9263849 2.7740126 2.2729156 398
5.9035268 2.7716405 2.4392104 352
5.9197516 2.7876282 2.6218448 308
8.5729542 4.0491481 4.0503025 168
7.7083778 3.6517029 3.8664198 298
7.9546175 3.7796392 4.2182479 112
6.8357453 3.2577019 3.8171146 70
6.1984835 2.9981291 4.231873 130
6.2269497 3.0207884 4.3771744 182
6.2154722 3.024117 4.4837193 112
5.6794834 2.8122573 4.4345126 200
6.1815143 3.0965419 4.7337041 222
6.1844106 3.1159186 4.5898781 226
7.5435615 3.8776166 4.481564 230
5.3329363 2.7491009 3.0244331 294
5.3950272 2.7890098 2.9089279 170
5.4345551 2.8174131 2.774822 314
5.4120035 2.813678 2.6057863 380
5.4077826 2.8194325 2.4436829 354
5.387732 2.8169074 2.273864 412
5.4455204 2.8551562 2.1357598 416
5.5331564 2.9092672 2.0048869 233
4.9765739 2.6831334 0.55521768 263
3.5293496 1.9081295 0.30872378 330
3.6811166 1.9956939 0.237113 251
4.7558575 2.5854785 0.20250176 293
4.2944317 2.3410754 0.09426754 582
4.7558022 2.5997264 0.012991086 273
4.2412066 2.3248005 -0.063531734 263
3.7957625 2.0863519 -0.11921265 457
3.530046 1.9456189 -0.16278209 332
4.1395049 2.2877731 -0.24553916 360
3.9258833 2.1756499 -0.27748489 390
3.3358116 1.858741 -0.29383999 398
3.1108732 1.7523229 -0.31126791 374
3.8280878 2.1797175 -0.30924124 356
3.5958819 2.0585344 -0.215106 265
4.1136174 2.3612428 -0.19155344 404
3.8484337 2.2149463 -0.12221154 518
3.9405241 2.2740271 -0.059762128 382
4.0896902 2.3664174 0.011325254 700
4.5237908 2.6245985 0.10079999 239
4.2497964 2.4722064 0.18392259 556
3.5169497 2.0513394 0.2305548 819
3.5795417 2.0934064 0.31908107 267
3.4357321 2.0146387 0.39112502 352
5.0855374 3.0696032 2.2216678 378
7.5151253 4.5717173 3.9873872 60
7.3362675 4.4745483 4.1158695 294
5.4115562 3.3264258 3.5049932 260
5.1535511 3.1760426 3.4747758 310
5.2573118 3.2483866 3.6768382 306
5.3434963 3.3101749 3.8632464 290
5.3480415 3.3215466 3.9816306 256
5.3483982 3.330349 4.0869927 246
5.3413396 3.3431058 4.2525454 224
5.3405929 3.3771114 4.4213266 164
5.2978468 3.3844664 4.3043427 316
5.2709799 3.3844903 4.1517735 234
5.2490811 3.3790004 4.0494428 218
4.9870148 3.2266338 3.6506579 270
5.0931449 3.3036549 3.6119018 322
5.1927333 3.3767824 3.5554223 298
5.2596092 3.428936 3.4644115 294
5.2313299 3.4277627 3.1527207 308
7.3077435 4.9468265 1.474654 398
7.3766928 5.0059376 1.2778996 282
3.3858328 2.3091307 0.40246198 212
4.9307528 3.3627627 0.58610111 298
3.4503248 2.3589592 0.32161283 283
4.4912186 3.0858729 0.20384754 402
3.5529315 2.4472408 0.083148904 327
3.4947948 2.4131546 0.010179547 277
4.1453304 2.8694277 -0.066224314 237
3.4394405 2.3866959 -0.1152233 247
4.0864558 2.8426728 -0.20103629 342
4.0883737 2.851022 -0.25875971 364
3.7850168 2.6459901 -0.28550646 358
3.2014041 2.2490346 -0.30105171 388
2.9136789 2.0670934 -0.31144163 336
3.5769572 2.5625932 -0.30889112 352
4.0928884 2.9465601 -0.26181859 338
2.6202786 1.8909961 -0.13050006 204
2.6249037 1.89895 -0.08916875 344
2.6979425 1.9565477 -0.043777399 259
3.4272692 2.4854555 -0.055611614 262
3.4060774 2.4760969 0.010093259 255
2.6317337 1.9178343 0.06276153 360
3.3831959 2.4654505 0.080682382 296
2.4353101 1.7790053 0.1128208 295
2.5849149 1.8928763 0.1814248 360
2.5985265 1.9074659 0.24803777 174
2.5538554 1.8792191 0.31137538 3793
3.8056097 2.8070884 0.56899852 507
7.0909791 5.2431154 1.2641358 436
6.9984341 5.1872039 1.4556996 436
7.0898638 5.2676735 1.6910059 482
6.8767781 5.1217122 1.855672 380
6.8756061 5.1331997 2.0760264 410
7.2463455 5.4229817 2.424592 412
7.2559319 5.4432459 2.6682484 410
7.2262163 5.4340296 2.8996804 386
7.0215297 5.3439012 3.999773 374
7.7555366 5.9167171 4.672255 336
5.9694939 4.5760012 3.9742172 258
4.748776 3.6489725 3.3045008 270
4.5567932 3.5098329 3.3015347 260
5.8803978 4.561904 4.7069726 308
7.6086683 5.9450407 6.5164299 338
7.4248552 5.8569179 6.617084 260
7.5209231 5.9893093 6.5827804 284
6.0482416 4.8394313 5.1340561 286
5.6800628 4.5556107 4.7231708 306
6.1041532 4.8957462 5.0758166 154
6.3245645 5.0966001 4.9921646 242
4.8602905 3.9258966 3.7172318 286
4.8962607 3.9643083 3.6161563 112
5.9472685 4.8380771 4.0508332 190
7.3246627 5.9726758 4.7641912 256
7.4306812 6.0734324 4.5966592 334
6.5244875 5.4086676 2.7179732 380
6.5448833 5.4383454 2.5031586 362
6.2932754 5.2415962 2.194036 388
6.2965178 5.2566299 1.9845477 510
6.3847184 5.3427939 1.8017342 514
6.1411428 5.1510592 1.5345602 436
3.4380617 2.8905458 0.75059509 126
2.3737683 2.0004282 0.44498035 259
2.3284779 1.9668722 0.36674902 384
2.4365816 2.0630162 0.3135255 241
6.1195564 5.181335 0.78742981 224
2.5398023 2.1554544 0.25632361 422
2.3475771 1.9969954 0.17452738 390
2.6370995 2.2485378 0.12964299 460
2.5378034 2.1689479 0.064341642 243
2.4241221 2.0766408 0.0076508387 261
2.5489676 2.1887019 -0.044132032 317
2.4343157 2.0951521 -0.088398397 428
2.4837921 2.1427355 -0.13247734 348
2.4210761 2.0935149 -0.16616407 362
2.5100644 2.1755438 -0.2053524 271
2.3926344 2.0834653 -0.24412502 424
2.3009226 2.0223892 -0.26706162 420
2.5706909 2.2806523 -0.24124458 422
2.3028655 2.0525799 -0.16015002 253
2.2838311 2.0403538 -0.12368049 277
2.2377863 2.0038717 -0.082675748 298
2.2896979 2.055135 -0.040414959 239
2.2986641 2.0679829 0.0074111507 289
2.3463411 2.115792 0.060892362 285
2.304141 2.0825703 0.11618525 309
2.5475314 2.3079088 0.19465429 1685
2.666908 2.4216805 0.27719161 259
2.3176851 2.1094599 0.30775928 275
2.3573997 2.1505916 0.38395157 324
2.6152673 2.391387 0.50798142 344
5.7173929 5.2400956 1.295988 376
5.7385926 5.2717376 1.491876 542
5.9432478 5.4724355 1.748431 520
5.5690274 5.1397619 1.8335726 324
6.965507 6.5488253 4.3337755 318
6.7927155 6.4011912 4.4705219 344
4.8732653 4.6030178 3.3791368 146
7.3459263 6.9385571 5.0936875 180
4.9053936 4.6440997 3.5691807 245
4.8008566 4.555675 3.65186 460
4.7791667 4.5455976 3.7859125 388
4.708107 4.4883971 3.8701138 350
4.5439296 4.3419127 3.8627229 492
4.4886584 4.2990313 3.9308512 174
6.0725675 5.8160267 5.3179278 296
5.4324217 5.2149878 4.8848 324
5.3291597 5.1395736 4.9965448 352
5.1537499 5.0166121 5.0324697 366
5.8770833 5.7206979 5.738781 112
5.2185178 5.126852 5.0088339 378
5.2674298 5.1988945 4.9053354 386
5.3433132 5.2859917 4.8755484 396
4.3510361 4.3143172 3.8752613 148
5.4408956 5.3949795 4.8459477 322
4.5453577 4.5174398 3.9386473 460
4.5298681 4.5124607 3.8041546 506
4.5495968 4.5425978 3.6903312 492
4.6929126 4.6965475 3.6634545 414
4.7566757 4.7713723 3.5598371 326
6.5207658 6.5409131 4.8800602 240
6.5093431 6.5445805 4.6530085 354
7.3246169 7.3813043 4.9806857 308
7.5344648 7.6103415 4.8543901 348
5.1713738 5.2964201 2.177494 308
5.3031597 5.4439783 2.0359328 432
5.1056252 5.2533278 1.7724299 418
5.1803665 5.3425674 1.6105194 235
5.0431509 5.2131104 1.3886445 368
2.1877782 2.2667434 0.52643842 269
2.2019672 2.2867258 0.45505485 416
2.9744065 3.0888979 0.61468589 266
3.0753145 3.2010939 0.53411555 442
2.2222767 2.3185229 0.31538242 267
2.2333474 2.3354685 0.24865153 241
2.2577813 2.3664947 0.18521273 269
2.212985 2.3249137 0.12007304 352
5.6640568 5.9505339 0.30732268 246
2.2816551 2.4026167 0.063859902 261
2.2228966 2.3461659 0.0077467137 311
2.2474747 2.3776028 -0.042976193 275
2.2454381 2.38096 -0.09007667 291
2.4587576 2.6131964 -0.14490592 801
3.0661619 3.2663059 -0.23257785 312
3.0920463 3.3015258 -0.27964455 332
2.7147374 2.912113 -0.30634543 372
2.4995902 2.7063081 -0.32116875 360
3.0998139 3.3874567 -0.32233638 410
2.4323509 2.6704292 -0.18752432 364
3.0416155 3.3393288 -0.23449612 168
2.1597459 2.3766518 -0.12969302 160
4.8819399 5.3722386 -0.29316109 380
2.2559669 2.4883063 -0.092442766 265
2.191365 2.4226778 -0.04291052 293
2.2095156 2.4484243 0.0079049077 277
2.1467395 2.3844008 0.061836578 374
5.3618312 5.9554291 0.15444693 204
2.1641824 2.4149737 0.18362972 315
2.1558108 2.4112389 0.2488817 406
4.7522206 5.3152804 0.54862916 292
4.7664671 5.343627 0.70318455 460
4.6096683 5.1798763 0.83432412 259
2.1687963 2.4427574 0.46825102 412
2.4904165 2.8115406 0.62763858 374
4.5426555 5.1284032 1.144847 238
4.8115616 5.444644 1.3910888 632
4.8231983 5.4705534 1.5783682 241
4.6707726 5.3100243 1.7110522 628
4.8103709 5.481432 1.9536468 247
4.8540659 5.5441179 2.1676168 646
4.4827642 5.1319885 2.1853726 328
4.4523125 5.1090164 2.3539622 240
7.1435647 8.2547855 4.6635442 182
6.1633773 7.1387606 4.2751498 288
6.8091779 7.8867617 4.7231011 76
5.9024367 6.8525205 4.3318577 362
5.8827658 6.8456469 4.5499287 362
5.5816245 6.5104032 4.5310841 284
6.0506444 7.0574675 4.911828 40
4.3588271 5.0960417 3.7001712 212
6.4850287 7.5818505 5.5050859 260
6.4274402 7.5321054 5.683598 288
4.830584 5.6740708 4.4335785 358
4.2031584 4.9486489 3.9904854 392
4.732069 5.5713696 4.4926343 222
4.1508417 4.8985014 4.0607395 370
4.6649842 5.5052528 4.5637217 222
4.0898266 4.8378224 4.1093054 408
4.3878741 5.2147503 4.5993724 408
4.2425985 5.0896463 4.6363158 342
4.2824545 5.1859736 4.6048956 360
4.7884054 5.7986703 5.148941 56
3.9175744 4.7664948 4.089345 336
3.9624858 4.8324986 4.0537963 354
4.0107889 4.9029388 4.0062184 380
5.976542 7.323204 5.8095307 232
4.0907092 5.0242743 3.8547745 364
4.6550198 5.7173696 4.386538 268
4.1579304 5.1188931 3.7854147 424
4.312355 5.3215642 3.779402 428
5.4575124 6.7506351 4.5866776 374
5.6109886 6.9569077 4.5053654 374
5.7335715 7.125711 4.380671 396
4.3549814 5.4898415 2.2473669 660
4.2192531 5.3313718 1.999987 550
4.3605318 5.5229955 1.8850751 512
4.2976694 5.4563117 1.680481 492
2.4185183 3.0778477 0.84714079 88
2.2116826 2.8213313 0.68633068 352
4.0573769 5.1757903 1.2590877 362
4.0448685 5.1721187 1.0972137 318
2.3135138 2.986582 0.29069445 174
4.054328 5.2463641 0.3754572 418
4.0055504 5.1956291 0.24541703 408
2.1193531 2.7556093 0.067000866 267
2.52319 3.2885313 0.0099350642 300
4.5636563 5.9479179 0.017969403 222
4.5375671 5.9280705 -0.098062426 368
4.441421 5.8163776 -0.20142068 352
3.2689831 4.3015323 -0.28048286 274
2.467557 3.2704227 -0.31524503 262
2.2613351 3.0260811 -0.32933259 302
1.2278253 1.6589798 -0.14488681 368
1.2401577 1.6837633 -0.10856398 416
1.2459705 1.695751 -0.084982418 422
1.2563742 1.7140532 -0.058492061 426
1.2169864 1.6643481 -0.027083408 372
4.0499325 5.5386791 -0.090129167 132
1.1980758 1.6424615 0.0048728557 385
1.2341956 1.6960928 0.040427905 233
2.0288012 2.7948544 0.12919441 394
2.0500994 2.8310626 0.19793339 301
2.1546044 3.0045018 0.529975 296
2.0441227 2.857399 0.58709258 264
3.7399068 5.2278686 1.0741388 238
2.064733 2.8932605 0.68050158 374
3.7004304 5.1853242 1.2196002 412
3.8464692 5.4031615 1.4353802 466
4.0401106 5.6890588 1.6882414 612
4.0236793 5.6797523 1.864633 297
3.7089303 5.2611341 2.0644381 336
5.7722087 8.2889156 4.5786004 372
5.3579226 7.7129579 4.4981685 392
5.0163794 7.2390776 4.4396462 376
4.6952653 6.7923841 4.3629026 332
4.2277522 6.1311688 4.1093688 426
4.1861959 6.0858941 4.2399235 390
3.9714823 5.788033 4.1763892 390
4.074358 5.9526534 4.4334655 346
3.9716628 5.8169823 4.45468 386
3.91978 5.7552404 4.5169163 386
3.8355203 5.6595106 4.6139164 416
4.0622044 6.0539231 5.1012659 356
3.9230151 5.9051447 4.8540378 626
3.7566452 5.6831026 4.5152955 394
3.8709776 5.8707581 4.5615411 410
3.9132283 5.9497399 4.5038557 426
3.9401152 6.0056996 4.4146152 420
4.003315 6.1173868 4.3497238 472
3.8783846 5.941411 4.0726562 384
4.053709 6.2256756 4.0992236 302
4.7538157 7.3193254 4.6114373 312
5.0440707 7.7858725 4.6764154 402
5.2802296 8.1710148 4.6597276 362
3.5033123 5.4765019 2.4315035 564
3.5131447 5.5058551 2.2686501 279
3.3872256 5.3220248 2.0232103 253
3.2619147 5.1381946 1.7903087 271
3.4095988 5.3845468 1.7073061 464
3.2693932 5.1763144 1.4812971 303
3.3649738 5.3412633 1.3662128 279
3.4311807 5.4603124 1.2346431 281
3.5687819 5.6938391 1.1229258 676
3.2450078 5.1905508 0.87747401 378
3.8007102 6.0794244 1.02774 266
1.1499659 1.8441572 0.2615028 395
1.2346845 1.9851074 0.22957337 275
3.2935176 5.3088975 0.48073143 272
1.2597862 2.035918 0.13557391 3047
1.3110582 2.1242435 0.093381837 319
1.2280385 1.9948764 0.045148987 336
1.9078362 3.0991678 0.070141837 308
1.331659 2.1687951 0.0061000576 317
1.2402713 2.0251861 -0.031194516 293
